1.948105e-04 1.992281e-04 2.035978e-04 2.078813e-04 2.120311e-04 2.159895e-04 2.196874e-04 2.230423e-04 2.259577e-04 2.283215e-04 2.300053e-04 2.308636e-04 2.307344e-04 2.294389e-04 2.267833e-04 2.225609e-04 2.165549e-04 2.085427e-04 1.983004e-04 1.856097e-04 1.702639e-04 1.520758e-04 1.308858e-04 1.065702e-04 7.904854e-05 4.829182e-05 1.432827e-05 -2.275150e-05 -6.279139e-05 -1.055688e-04 -1.507958e-04 -1.981229e-04 -2.471448e-04 -2.974089e-04 -3.484249e-04 -3.996767e-04 -4.506346e-04 -5.007683e-04 -5.495599e-04 -5.965161e-04 -6.411788e-04 -6.831353e-04 -7.220258e-04 -7.575491e-04 -7.894660e-04 -8.176013e-04 -8.418431e-04 -8.621410e-04 -8.785018e-04 -8.909854e-04 -8.996985e-04 -9.047886e-04 -9.064370e-04 -9.048525e-04 -9.002642e-04 -8.929160e-04 -8.830604e-04 -8.709533e-04 -8.568497e-04 -8.410000e-04 -8.236461e-04
1.957516e-04 2.002629e-04 2.047534e-04 2.091879e-04 2.135221e-04 2.177003e-04 2.216542e-04 2.253008e-04 2.285406e-04 2.312562e-04 2.333103e-04 2.345454e-04 2.347826e-04 2.338220e-04 2.314437e-04 2.274100e-04 2.214680e-04 2.133549e-04 2.028028e-04 1.895467e-04 1.733323e-04 1.539252e-04 1.311214e-04 1.047574e-04 7.472070e-05 4.095928e-05 3.490162e-06 -3.759385e-05 -8.211976e-05 -1.298326e-04 -1.803967e-04 -2.333997e-04 -2.883606e-04 -3.447394e-04 -4.019499e-04 -4.593747e-04 -5.163810e-04 -5.723365e-04 -6.266265e-04 -6.786685e-04 -7.279264e-04 -7.739217e-04 -8.162436e-04 -8.545544e-04 -8.885945e-04 -9.181826e-04 -9.432151e-04 -9.636621e-04 -9.795622e-04 -9.910161e-04 -9.981784e-04 -1.001250e-03 -1.000467e-03 -9.960983e-04 -9.884294e-04 -9.777608e-04 -9.643993e-04 -9.486514e-04 -9.308191e-04 -9.111951e-04 -8.900594e-04
1.953727e-04 1.998692e-04 2.043692e-04 2.088423e-04 2.132486e-04 2.175365e-04 2.216406e-04 2.254793e-04 2.289522e-04 2.319384e-04 2.342938e-04 2.358493e-04 2.364100e-04 2.357543e-04 2.336346e-04 2.297790e-04 2.238946e-04 2.156720e-04 2.047922e-04 1.909346e-04 1.737872e-04 1.530579e-04 1.284872e-04 9.986140e-05 6.702602e-05 2.989826e-05 -1.152155e-05 -5.714086e-05 -1.067687e-04 -1.601127e-04 -2.167802e-04 -2.762838e-04 -3.380497e-04 -4.014315e-04 -4.657260e-04 -5.301920e-04 -5.940707e-04 -6.566065e-04 -7.170677e-04 -7.747659e-04 -8.290728e-04 -8.794349e-04 -9.253838e-04 -9.665444e-04 -1.002638e-03 -1.033484e-03 -1.058995e-03 -1.079173e-03 -1.094102e-03 -1.103937e-03 -1.108896e-03 -1.109247e-03 -1.105299e-03 -1.097389e-03 -1.085875e-03 -1.071124e-03 -1.053508e-03 -1.033391e-03 -1.011129e-03 -9.870629e-04 -9.615138e-04
1.934489e-04 1.977880e-04 2.021485e-04 2.065065e-04 2.108281e-04 2.150680e-04 2.191659e-04 2.230442e-04 2.266047e-04 2.297253e-04 2.322575e-04 2.340229e-04 2.348118e-04 2.343812e-04 2.324549e-04 2.287243e-04 2.228520e-04 2.144762e-04 2.032184e-04 1.886926e-04 1.705176e-04 1.483308e-04 1.218041e-04 9.066050e-05 5.469137e-05 1.377318e-05 -3.211760e-05 -8.289210e-05 -1.383403e-04 -1.981266e-04 -2.617907e-04 -3.287537e-04 -3.983294e-04 -4.697410e-04 -5.421419e-04 -6.146393e-04 -6.863208e-04 -7.562811e-04 -8.236479e-04 -8.876067e-04 -9.474214e-04 -1.002452e-03 -1.052169e-03 -1.096159e-03 -1.134128e-03 -1.165905e-03 -1.191433e-03 -1.210760e-03 -1.224032e-03 -1.231479e-03 -1.233400e-03 -1.230148e-03 -1.222122e-03 -1.209746e-03 -1.193463e-03 -1.173720e-03 -1.150964e-03 -1.125626e-03 -1.098123e-03 -1.068847e-03 -1.038168e-03
1.897430e-04 1.937419e-04 1.977692e-04 2.018083e-04 2.058336e-04 2.098079e-04 2.136789e-04 2.173762e-04 2.208067e-04 2.238512e-04 2.263599e-04 2.281484e-04 2.289946e-04 2.286354e-04 2.267661e-04 2.230400e-04 2.170711e-04 2.084394e-04 1.966979e-04 1.813846e-04 1.620359e-04 1.382038e-04 1.094758e-04 7.549574e-05 3.598635e-05 -9.229237e-06 -6.020748e-05 -1.168677e-04 -1.789798e-04 -2.461580e-04 -3.178610e-04 -3.933989e-04 -4.719481e-04 -5.525721e-04 -6.342480e-04 -7.158976e-04 -7.964213e-04 -8.747320e-04 -9.497887e-04 -1.020627e-03 -1.086387e-03 -1.146331e-03 -1.199863e-03 -1.246532e-03 -1.286043e-03 -1.318243e-03 -1.343124e-03 -1.360802e-03 -1.371509e-03 -1.375570e-03 -1.373390e-03 -1.365432e-03 -1.352203e-03 -1.334234e-03 -1.312070e-03 -1.286253e-03 -1.257315e-03 -1.225764e-03 -1.192085e-03 -1.156728e-03 -1.120109e-03
1.840116e-04 1.874414e-04 1.908888e-04 1.943459e-04 1.977967e-04 2.012143e-04 2.045573e-04 2.077658e-04 2.107559e-04 2.134156e-04 2.155983e-04 2.171180e-04 2.177439e-04 2.171962e-04 2.151427e-04 2.111982e-04 2.049256e-04 1.958404e-04 1.834192e-04 1.671116e-04 1.463572e-04 1.206060e-04 8.934257e-05 5.211306e-05 8.553821e-06 -4.158039e-05 -9.838996e-05 -1.618079e-04 -2.315829e-04 -3.072702e-04 -3.882308e-04 -4.736401e-04 -5.625061e-04 -6.536960e-04 -7.459709e-04 -8.380260e-04 -9.285331e-04 -1.016186e-03 -1.099742e-03 -1.178061e-03 -1.250138e-03 -1.315130e-03 -1.372372e-03 -1.421385e-03 -1.461879e-03 -1.493746e-03 -1.517049e-03 -1.531999e-03 -1.538943e-03 -1.538333e-03 -1.530709e-03 -1.516670e-03 -1.496857e-03 -1.471931e-03 -1.442557e-03 -1.409387e-03 -1.373050e-03 -1.334141e-03 -1.293218e-03 -1.250792e-03 -1.207328e-03
1.760131e-04 1.785929e-04 1.811537e-04 1.836964e-04 1.862157e-04 1.886969e-04 1.911121e-04 1.934152e-04 1.955363e-04 1.973752e-04 1.987943e-04 1.996116e-04 1.995933e-04 1.984470e-04 1.958170e-04 1.912804e-04 1.843475e-04 1.744649e-04 1.610241e-04 1.433747e-04 1.208438e-04 9.276054e-05 5.848610e-05 1.744775e-05 -3.082483e-05 -8.666261e-05 -1.502224e-04 -2.214568e-04 -3.000911e-04 -3.856102e-04 -4.772566e-04 -5.740409e-04 -6.747646e-04 -7.780544e-04 -8.824071e-04 -9.862408e-04 -1.087951e-03 -1.185968e-03 -1.278810e-03 -1.365133e-03 -1.443768e-03 -1.513759e-03 -1.574372e-03 -1.625114e-03 -1.665724e-03 -1.696164e-03 -1.716601e-03 -1.727380e-03 -1.728998e-03 -1.722075e-03 -1.707318e-03 -1.685498e-03 -1.657417e-03 -1.623893e-03 -1.585729e-03 -1.543703e-03 -1.498556e-03 -1.450977e-03 -1.401600e-03 -1.351000e-03 -1.299690e-03
1.655196e-04 1.669117e-04 1.682119e-04 1.694292e-04 1.705688e-04 1.716293e-04 1.725982e-04 1.734465e-04 1.741224e-04 1.745430e-04 1.745861e-04 1.740805e-04 1.727962e-04 1.704353e-04 1.666233e-04 1.609033e-04 1.527333e-04 1.414878e-04 1.264660e-04 1.069057e-04 8.200548e-05 5.095408e-05 1.296730e-05 -3.266957e-05 -8.655523e-05 -1.491247e-04 -2.206038e-04 -3.009692e-04 -3.899178e-04 -4.868482e-04 -5.908576e-04 -7.007542e-04 -8.150861e-04 -9.321862e-04 -1.050229e-03 -1.167298e-03 -1.281456e-03 -1.390821e-03 -1.493631e-03 -1.588307e-03 -1.673504e-03 -1.748144e-03 -1.811439e-03 -1.862900e-03 -1.902326e-03 -1.929789e-03 -1.945605e-03 -1.950300e-03 -1.944572e-03 -1.929249e-03 -1.905253e-03 -1.873561e-03 -1.835175e-03 -1.791090e-03 -1.742273e-03 -1.689645e-03 -1.634066e-03 -1.576326e-03 -1.517140e-03 -1.457143e-03 -1.396895e-03
1.523317e-04 1.521384e-04 1.517316e-04 1.511256e-04 1.503346e-04 1.493700e-04 1.482352e-04 1.469205e-04 1.453955e-04 1.435998e-04 1.414330e-04 1.387423e-04 1.353099e-04 1.308402e-04 1.249474e-04 1.171459e-04 1.068440e-04 9.334289e-05 7.584348e-05 5.346104e-05 2.525023e-05 -9.759904e-06 -5.252101e-05 -1.039123e-04 -1.646814e-04 -2.353836e-04 -3.163225e-04 -4.074983e-04 -5.085674e-04 -6.188182e-04 -7.371660e-04 -8.621692e-04 -9.920661e-04 -1.124833e-03 -1.258255e-03 -1.390016e-03 -1.517788e-03 -1.639320e-03 -1.752533e-03 -1.855588e-03 -1.946948e-03 -2.025422e-03 -2.090188e-03 -2.140794e-03 -2.177145e-03 -2.199475e-03 -2.208309e-03 -2.204413e-03 -2.188742e-03 -2.162393e-03 -2.126549e-03 -2.082439e-03 -2.031298e-03 -1.974331e-03 -1.912687e-03 -1.847445e-03 -1.779591e-03 -1.710020e-03 -1.639524e-03 -1.568796e-03 -1.498433e-03
1.362969e-04 1.340606e-04 1.314252e-04 1.284058e-04 1.250219e-04 1.212941e-04 1.172403e-04 1.128699e-04 1.081754e-04 1.031229e-04 9.763895e-05 9.159647e-05 8.479826e-05 7.695984e-05 6.769264e-05 5.648911e-05 4.271181e-05 2.558891e-05 4.218515e-06 -2.241608e-05 -5.541822e-05 -9.593615e-05 -1.451081e-04 -2.039957e-04 -2.735098e-04 -3.543328e-04 -4.468435e-04 -5.510511e-04 -6.665446e-04 -7.924620e-04 -9.274856e-04 -1.069863e-03 -1.217454e-03 -1.367808e-03 -1.518252e-03 -1.666002e-03 -1.808278e-03 -1.942419e-03 -2.065990e-03 -2.176878e-03 -2.273356e-03 -2.354140e-03 -2.418408e-03 -2.465796e-03 -2.496378e-03 -2.510621e-03 -2.509330e-03 -2.493586e-03 -2.464673e-03 -2.424019e-03 -2.373129e-03 -2.313529e-03 -2.246723e-03 -2.174154e-03 -2.097175e-03 -2.017028e-03 -1.934835e-03 -1.851588e-03 -1.768150e-03 -1.685262e-03 -1.603544e-03
1.173323e-04 1.125386e-04 1.070800e-04 1.009646e-04 9.420928e-05 8.683778e-05 7.887699e-05 7.035152e-05 6.127546e-05 5.164131e-05 4.140577e-05 3.047227e-05 1.867079e-05 5.735729e-06 -8.716858e-06 -2.521034e-05 -4.442443e-05 -6.720453e-05 -9.456033e-05 -1.276500e-04 -1.677479e-04 -2.161938e-04 -2.743248e-04 -3.433920e-04 -4.244666e-04 -5.183428e-04 -6.254443e-04 -7.457439e-04 -8.787032e-04 -1.023240e-03 -1.177725e-03 -1.340015e-03 -1.507514e-03 -1.677271e-03 -1.846087e-03 -2.010660e-03 -2.167716e-03 -2.314156e-03 -2.447181e-03 -2.564404e-03 -2.663938e-03 -2.744444e-03 -2.805156e-03 -2.845873e-03 -2.866917e-03 -2.869077e-03 -2.853530e-03 -2.821756e-03 -2.775453e-03 -2.716451e-03 -2.646635e-03 -2.567879e-03 -2.481995e-03 -2.390685e-03 -2.295516e-03 -2.197903e-03 -2.099094e-03 -2.000169e-03 -1.902051e-03 -1.805505e-03 -1.711156e-03
9.544920e-05 8.753674e-05 7.859541e-05 6.861465e-05 5.759713e-05 4.555811e-05 3.252306e-05 1.852282e-05 3.585707e-06 -1.227410e-05 -2.907240e-05 -4.687533e-05 -6.582395e-05 -8.616228e-05 -1.082671e-04 -1.326767e-04 -1.601157e-04 -1.915097e-04 -2.279877e-04 -2.708641e-04 -3.215997e-04 -3.817374e-04 -4.528149e-04 -5.362578e-04 -6.332611e-04 -7.446677e-04 -8.708574e-04 -1.011655e-03 -1.166267e-03 -1.333260e-03 -1.510568e-03 -1.695547e-03 -1.885060e-03 -2.075591e-03 -2.263387e-03 -2.444614e-03 -2.615515e-03 -2.772575e-03 -2.912668e-03 -3.033189e-03 -3.132143e-03 -3.208212e-03 -3.260773e-03 -3.289877e-03 -3.296199e-03 -3.280951e-03 -3.245787e-03 -3.192685e-03 -3.123844e-03 -3.041571e-03 -2.948193e-03 -2.845978e-03 -2.737071e-03 -2.623453e-03 -2.506910e-03 -2.389018e-03 -2.271137e-03 -2.154419e-03 -2.039813e-03 -1.928086e-03 -1.819837e-03
7.078089e-05 5.915727e-05 4.602540e-05 3.133944e-05 1.507069e-05 -2.791429e-06 -2.224012e-05 -4.325466e-05 -6.580744e-05 -8.987571e-05 -1.154588e-04 -1.426013e-04 -1.714232e-04 -2.021546e-04 -2.351741e-04 -2.710484e-04 -3.105652e-04 -3.547562e-04 -4.049007e-04 -4.625039e-04 -5.292433e-04 -6.068813e-04 -6.971464e-04 -8.015897e-04 -9.214301e-04 -1.057405e-03 -1.209643e-03 -1.377573e-03 -1.559886e-03 -1.754540e-03 -1.958814e-03 -2.169407e-03 -2.382551e-03 -2.594159e-03 -2.799971e-03 -2.995718e-03 -3.177288e-03 -3.340887e-03 -3.483197e-03 -3.601516e-03 -3.693866e-03 -3.759061e-03 -3.796729e-03 -3.807287e-03 -3.791873e-03 -3.752235e-03 -3.690609e-03 -3.609573e-03 -3.511909e-03 -3.400474e-03 -3.278091e-03 -3.147454e-03 -3.011061e-03 -2.871172e-03 -2.729779e-03 -2.588599e-03 -2.449075e-03 -2.312390e-03 -2.179487e-03 -2.051092e-03 -1.927742e-03
4.360957e-05 2.767639e-05 9.624572e-06 -1.064861e-05 -3.322655e-05 -5.817025e-05 -8.551687e-05 -1.152813e-04 -1.474615e-04 -1.820504e-04 -2.190537e-04 -2.585170e-04 -3.005618e-04 -3.454297e-04 -3.935330e-04 -4.455066e-04 -5.022549e-04 -5.649827e-04 -6.352001e-04 -7.146884e-04 -8.054190e-04 -9.094217e-04 -1.028607e-03 -1.164556e-03 -1.318310e-03 -1.490176e-03 -1.679597e-03 -1.885093e-03 -2.104295e-03 -2.334047e-03 -2.570576e-03 -2.809675e-03 -3.046881e-03 -3.277642e-03 -3.497443e-03 -3.701922e-03 -3.886986e-03 -4.048924e-03 -4.184545e-03 -4.291310e-03 -4.367453e-03 -4.412076e-03 -4.425180e-03 -4.407654e-03 -4.361196e-03 -4.288185e-03 -4.191528e-03 -4.074482e-03 -3.940483e-03 -3.792993e-03 -3.635358e-03 -3.470717e-03 -3.301916e-03 -3.131474e-03 -2.961556e-03 -2.793977e-03 -2.630213e-03 -2.471428e-03 -2.318503e-03 -2.172073e-03 -2.032561e-03
1.439071e-05 -6.422224e-06 -3.010613e-05 -5.684745e-05 -8.681390e-05 -1.201491e-04 -1.569683e-04 -1.973576e-04 -2.413774e-04 -2.890730e-04 -3.404941e-04 -3.957267e-04 -4.549372e-04 -5.184305e-04 -5.867178e-04 -6.605898e-04 -7.411836e-04 -8.300269e-04 -9.290426e-04 -1.040491e-03 -1.166835e-03 -1.310519e-03 -1.473677e-03 -1.657793e-03 -1.863370e-03 -2.089673e-03 -2.334594e-03 -2.594705e-03 -2.865469e-03 -3.141608e-03 -3.417516e-03 -3.687663e-03 -3.946889e-03 -4.190558e-03 -4.414586e-03 -4.615378e-03 -4.789746e-03 -4.934868e-03 -5.048325e-03 -5.128209e-03 -5.173264e-03 -5.183047e-03 -5.158017e-03 -5.099575e-03 -5.010005e-03 -4.892342e-03 -4.750194e-03 -4.587528e-03 -4.408462e-03 -4.217072e-03 -4.017235e-03 -3.812509e-03 -3.606058e-03 -3.400609e-03 -3.198439e-03 -3.001394e-03 -2.810909e-03 -2.628058e-03 -2.453591e-03 -2.287986e-03 -2.131489e-03
-1.622942e-05 -4.242030e-05 -7.237978e-05 -1.064092e-04 -1.447961e-04 -1.878056e-04 -2.356740e-04 -2.886040e-04 -3.467658e-04 -4.103067e-04 -4.793727e-04 -5.541465e-04 -6.349051e-04 -7.220988e-04 -8.164492e-04 -9.190584e-04 -1.031513e-03 -1.155958e-03 -1.295106e-03 -1.452140e-03 -1.630482e-03 -1.833406e-03 -2.063504e-03 -2.322075e-03 -2.608547e-03 -2.920045e-03 -3.251276e-03 -3.594796e-03 -3.941671e-03 -4.282421e-03 -4.608054e-03 -4.910940e-03 -5.185354e-03 -5.427564e-03 -5.635529e-03 -5.808346e-03 -5.945648e-03 -6.047148e-03 -6.112425e-03 -6.140968e-03 -6.132413e-03 -6.086852e-03 -6.005121e-03 -5.888971e-03 -5.741107e-03 -5.565082e-03 -5.365106e-03 -5.145787e-03 -4.911872e-03 -4.668007e-03 -4.418543e-03 -4.167399e-03 -3.917979e-03 -3.673132e-03 -3.435155e-03 -3.205825e-03 -2.986445e-03 -2.777902e-03 -2.580728e-03 -2.395163e-03 -2.221211e-03
-4.740787e-05 -7.935072e-05 -1.160974e-04 -1.580983e-04 -2.057995e-04 -2.596322e-04 -3.200019e-04 -3.872801e-04 -4.618019e-04 -5.438738e-04 -6.337979e-04 -7.319196e-04 -8.387057e-04 -9.548580e-04 -1.081464e-03 -1.220172e-03 -1.373378e-03 -1.544361e-03 -1.737334e-03 -1.957307e-03 -2.209698e-03 -2.499635e-03 -2.830953e-03 -3.205005e-03 -3.619488e-03 -4.067598e-03 -4.537847e-03 -5.014758e-03 -5.480478e-03 -5.917053e-03 -6.308864e-03 -6.644632e-03 -6.918486e-03 -7.129849e-03 -7.282285e-03 -7.381708e-03 -7.434530e-03 -7.446213e-03 -7.420530e-03 -7.359530e-03 -7.264047e-03 -7.134454e-03 -6.971405e-03 -6.776369e-03 -6.551892e-03 -6.301585e-03 -6.029920e-03 -5.741909e-03 -5.442757e-03 -5.137545e-03 -4.830985e-03 -4.527239e-03 -4.229828e-03 -3.941599e-03 -3.664741e-03 -3.400837e-03 -3.150933e-03 -2.915620e-03 -2.695110e-03 -2.489316e-03 -2.297917e-03
-7.811593e-05 -1.160030e-04 -1.598449e-04 -2.102747e-04 -2.679372e-04 -3.334740e-04 -4.075094e-04 -4.906361e-04 -5.834074e-04 -6.863418e-04 -7.999488e-04 -9.247890e-04 -1.061582e-03 -1.211377e-03 -1.375790e-03 -1.557310e-03 -1.759641e-03 -1.988017e-03 -2.249379e-03 -2.552260e-03 -2.906199e-03 -3.320528e-03 -3.802476e-03 -4.354754e-03 -4.973018e-03 -5.643910e-03 -6.344442e-03 -7.043399e-03 -7.704888e-03 -8.293558e-03 -8.780284e-03 -9.146817e-03 -9.388099e-03 -9.511626e-03 -9.534210e-03 -9.477236e-03 -9.361871e-03 -9.205444e-03 -9.019666e-03 -8.810649e-03 -8.580216e-03 -8.327781e-03 -8.052159e-03 -7.752906e-03 -7.431036e-03 -7.089183e-03 -6.731357e-03 -6.362491e-03 -5.987925e-03 -5.612950e-03 -5.242447e-03 -4.880658e-03 -4.531057e-03 -4.196330e-03 -3.878399e-03 -3.578501e-03 -3.297288e-03 -3.034925e-03 -2.791193e-03 -2.565581e-03 -2.357365e-03
-1.071719e-04 -1.509557e-04 -2.019226e-04 -2.609186e-04 -3.288217e-04 -4.065245e-04 -4.949121e-04 -5.948408e-04 -7.071195e-04 -8.325056e-04 -9.717277e-04 -1.125556e-03 -1.294948e-03 -1.481295e-03 -1.686808e-03 -1.915047e-03 -2.171580e-03 -2.464686e-03 -2.805922e-03 -3.210270e-03 -3.695443e-03 -4.279958e-03 -4.979672e-03 -5.802883e-03 -6.744715e-03 -7.782229e-03 -8.872148e-03 -9.953008e-03 -1.095250e-02 -1.179908e-02 -1.243517e-02 -1.282813e-02 -1.297558e-02 -1.290362e-02 -1.265856e-02 -1.229523e-02 -1.186545e-02 -1.140981e-02 -1.095397e-02 -1.050943e-02 -1.007705e-02 -9.651668e-03 -9.226260e-03 -8.794906e-03 -8.354323e-03 -7.904221e-03 -7.446887e-03 -6.986395e-03 -6.527751e-03 -6.076150e-03 -5.636421e-03 -5.212690e-03 -4.808204e-03 -4.425304e-03 -4.065471e-03 -3.729434e-03 -3.417298e-03 -3.128672e-03 -2.862792e-03 -2.618632e-03 -2.394988e-03
-1.332992e-04 -1.826415e-04 -2.404170e-04 -3.077057e-04 -3.856446e-04 -4.754040e-04 -5.781567e-04 -6.950411e-04 -8.271240e-04 -9.753742e-04 -1.140666e-03 -1.323845e-03 -1.525899e-03 -1.748299e-03 -1.993588e-03 -2.266264e-03 -2.574018e-03 -2.929233e-03 -3.350518e-03 -3.863774e-03 -4.501968e-03 -5.302590e-03 -6.301786e-03 -7.524793e-03 -8.973618e-03 -1.061477e-02 -1.237155e-02 -1.412573e-02 -1.573172e-02 -1.704190e-02 -1.793718e-02 -1.835325e-02 -1.829368e-02 -1.782548e-02 -1.705898e-02 -1.611975e-02 -1.512185e-02 -1.414974e-02 -1.325193e-02 -1.244455e-02 -1.172089e-02 -1.106227e-02 -1.044722e-02 -9.857341e-03 -9.280046e-03 -8.708911e-03 -8.142618e-03 -7.583366e-03 -7.035297e-03 -6.503224e-03 -5.991737e-03 -5.504682e-03 -5.044914e-03 -4.614261e-03 -4.213593e-03 -3.842974e-03 -3.501819e-03 -3.189057e-03 -2.903280e-03 -2.642862e-03 -2.406060e-03
-1.552113e-04 -2.094475e-04 -2.733181e-04 -3.481456e-04 -4.353355e-04 -5.363445e-04 -6.526337e-04 -7.856069e-04 -9.365367e-04 -1.106491e-03 -1.296279e-03 -1.506467e-03 -1.737526e-03 -1.990231e-03 -2.266459e-03 -2.570563e-03 -2.911513e-03 -3.305858e-03 -3.781322e-03 -4.380339e-03 -5.162041e-03 -6.200432e-03 -7.575883e-03 -9.357766e-03 -1.157842e-02 -1.420320e-02 -1.710665e-02 -2.006779e-02 -2.279459e-02 -2.497825e-02 -2.636393e-02 -2.681457e-02 -2.634415e-02 -2.510773e-02 -2.335334e-02 -2.135494e-02 -1.935105e-02 -1.750662e-02 -1.590377e-02 -1.455522e-02 -1.342883e-02 -1.247255e-02 -1.163326e-02 -1.086748e-02 -1.014519e-02 -9.449184e-03 -8.772197e-03 -8.113560e-03 -7.476220e-03 -6.864533e-03 -6.282831e-03 -5.734638e-03 -5.222333e-03 -4.747110e-03 -4.309102e-03 -3.907575e-03 -3.541140e-03 -3.207952e-03 -2.905882e-03 -2.632650e-03 -2.385932e-03
-1.717201e-04 -2.298485e-04 -2.986831e-04 -3.797811e-04 -4.748073e-04 -5.854897e-04 -7.135486e-04 -8.605946e-04 -1.027991e-03 -1.216689e-03 -1.427051e-03 -1.658713e-03 -1.910584e-03 -2.181147e-03 -2.469335e-03 -2.776370e-03 -3.109061e-03 -3.485047e-03 -3.940200e-03 -4.537611e-03 -5.376065e-03 -6.593613e-03 -8.359414e-03 -1.084618e-02 -1.417887e-02 -1.836494e-02 -2.322652e-02 -2.836746e-02 -3.320774e-02 -3.709583e-02 -3.947256e-02 -4.002832e-02 -3.878958e-02 -3.609906e-02 -3.250031e-02 -2.857803e-02 -2.481745e-02 -2.152617e-02 -1.882695e-02 -1.670043e-02 -1.504636e-02 -1.373831e-02 -1.265991e-02 -1.172182e-02 -1.086483e-02 -1.005528e-02 -9.277888e-03 -8.528769e-03 -7.809982e-03 -7.125854e-03 -6.480793e-03 -5.878178e-03 -5.319969e-03 -4.806708e-03 -4.337724e-03 -3.911415e-03 -3.525521e-03 -3.177370e-03 -2.864079e-03 -2.582698e-03 -2.330324e-03
-1.818595e-04 -2.425637e-04 -3.148345e-04 -4.004387e-04 -5.012720e-04 -6.192968e-04 -7.564378e-04 -9.144202e-04 -1.094534e-03 -1.297314e-03 -1.522137e-03 -1.766766e-03 -2.026944e-03 -2.296241e-03 -2.566561e-03 -2.829977e-03 -3.082953e-03 -3.334314e-03 -3.618427e-03 -4.014301e-03 -4.668900e-03 -5.818172e-03 -7.791968e-03 -1.098211e-02 -1.575285e-02 -2.228961e-02 -3.041946e-02 -3.948201e-02 -4.834797e-02 -5.563987e-02 -6.010966e-02 -6.102906e-02 -5.842000e-02 -5.302063e-02 -4.600947e-02 -3.862251e-02 -3.183022e-02 -2.618219e-02 -2.182562e-02 -1.862970e-02 -1.633246e-02 -1.465458e-02 -1.336294e-02 -1.229178e-02 -1.133825e-02 -1.044730e-02 -9.595212e-03 -8.776150e-03 -7.992833e-03 -7.250799e-03 -6.555347e-03 -5.910187e-03 -5.317091e-03 -4.776038e-03 -4.285580e-03 -3.843244e-03 -3.445900e-03 -3.090058e-03 -2.772101e-03 -2.488447e-03 -2.235654e-03
-1.850123e-04 -2.467208e-04 -3.205714e-04 -4.085015e-04 -5.125941e-04 -6.349959e-04 -7.777709e-04 -9.426612e-04 -1.130718e-03 -1.341756e-03 -1.573594e-03 -1.821054e-03 -2.074755e-03 -2.319887e-03 -2.535396e-03 -2.694541e-03 -2.768519e-03 -2.736024e-03 -2.602712e-03 -2.435069e-03 -2.411119e-03 -2.882862e-03 -4.429251e-03 -7.854583e-03 -1.406745e-02 -2.378823e-02 -3.711156e-02 -5.308876e-02 -6.960521e-02 -8.377026e-02 -9.277391e-02 -9.485856e-02 -8.993997e-02 -7.957374e-02 -6.630152e-02 -5.272633e-02 -4.076569e-02 -3.135423e-02 -2.457183e-02 -1.998367e-02 -1.697658e-02 -1.498020e-02 -1.356336e-02 -1.244517e-02 -1.146582e-02 -1.054770e-02 -9.661973e-03 -8.804792e-03 -7.982683e-03 -7.204517e-03 -6.477757e-03 -5.807140e-03 -5.194606e-03 -4.639750e-03 -4.140445e-03 -3.693419e-03 -3.294740e-03 -2.940184e-03 -2.625487e-03 -2.346524e-03 -2.099410e-03
-1.810218e-04 -2.420047e-04 -3.153669e-04 -4.031677e-04 -5.076289e-04 -6.310325e-04 -7.755333e-04 -9.428355e-04 -1.133668e-03 -1.346964e-03 -1.578629e-03 -1.819757e-03 -2.054182e-03 -2.255331e-03 -2.382656e-03 -2.378521e-03 -2.167708e-03 -1.663901e-03 -7.908826e-04 4.697544e-04 1.990242e-03 3.359050e-03 3.710074e-03 1.590005e-03 -4.983810e-03 -1.807153e-02 -3.886225e-02 -6.648034e-02 -9.725929e-02 -1.252658e-01 -1.441851e-01 -1.497205e-01 -1.412650e-01 -1.219945e-01 -9.735982e-02 -7.284030e-02 -5.218926e-02 -3.689479e-02 -2.667938e-02 -2.038208e-02 -1.668737e-02 -1.451453e-02 -1.312649e-02 -1.208824e-02 -1.117735e-02 -1.030011e-02 -9.430840e-03 -8.574326e-03 -7.745227e-03 -6.958246e-03 -6.224322e-03 -5.549860e-03 -4.937269e-03 -4.385934e-03 -3.893171e-03 -3.455038e-03 -3.066941e-03 -2.724064e-03 -2.421652e-03 -2.155190e-03 -1.920495e-03
-1.702699e-04 -2.287650e-04 -2.995130e-04 -3.846457e-04 -4.864789e-04 -6.074012e-04 -7.496561e-04 -9.149513e-04 -1.103794e-03 -1.314403e-03 -1.540973e-03 -1.771000e-03 -1.981264e-03 -2.132049e-03 -2.159279e-03 -1.964743e-03 -1.406016e-03 -2.907188e-04 1.614138e-03 4.536901e-03 8.585734e-03 1.351839e-02 1.836722e-02 2.096903e-02 1.764000e-02 3.515519e-03 -2.580542e-02 -7.126173e-02 -1.274941e-01 -1.828500e-01 -2.233526e-01 -2.385077e-01 -2.256869e-01 -1.909829e-01 -1.459951e-01 -1.023121e-01 -6.724330e-02 -4.292702e-02 -2.797835e-02 -1.966690e-02 -1.538517e-02 -1.323423e-02 -1.205130e-02 -1.122069e-02 -1.046514e-02 -9.689161e-03 -8.881710e-03 -8.063149e-03 -7.259821e-03 -6.493761e-03 -5.779869e-03 -5.126294e-03 -4.535908e-03 -4.007895e-03 -3.539101e-03 -3.125059e-03 -2.760701e-03 -2.440828e-03 -2.160409e-03 -1.914740e-03 -1.699531e-03
-1.537038e-04 -2.080591e-04 -2.741856e-04 -3.542425e-04 -4.506100e-04 -5.657860e-04 -7.021683e-04 -8.616433e-04 -1.044854e-03 -1.249947e-03 -1.470476e-03 -1.691998e-03 -1.886626e-03 -2.004566e-03 -1.961360e-03 -1.619531e-03 -7.640366e-04 9.262859e-04 3.902073e-03 8.736983e-03 1.603873e-02 2.618364e-02 3.874350e-02 5.149992e-02 5.915714e-02 5.246373e-02 1.953742e-02 -4.819887e-02 -1.464985e-01 -2.540409e-01 -3.406792e-01 -3.813404e-01 -3.663528e-01 -3.058274e-01 -2.244194e-01 -1.471942e-01 -8.838575e-02 -5.040679e-02 -2.898516e-02 -1.826086e-02 -1.344135e-02 -1.143463e-02 -1.054575e-02 -9.972992e-03 -9.401849e-03 -8.749674e-03 -8.027279e-03 -7.272592e-03 -6.523018e-03 -5.806479e-03 -5.140449e-03 -4.533814e-03 -3.989309e-03 -3.505668e-03 -3.079255e-03 -2.705215e-03 -2.378223e-03 -2.092955e-03 -1.844356e-03 -1.627785e-03 -1.439068e-03
-1.328015e-04 -1.816158e-04 -2.414041e-04 -3.143177e-04 -4.027884e-04 -5.094588e-04 -6.370101e-04 -7.878084e-04 -9.632361e-04 -1.162488e-03 -1.380471e-03 -1.604209e-03 -1.806817e-03 -1.937570e-03 -1.905852e-03 -1.555929e-03 -6.287979e-04 1.291988e-03 4.849060e-03 1.097901e-02 2.093053e-02 3.612096e-02 5.762406e-02 8.498203e-02 1.139612e-01 1.328242e-01 1.177636e-01 3.605571e-02 -1.254401e-01 -3.296907e-01 -5.118214e-01 -6.165117e-01 -6.113078e-01 -5.055801e-01 -3.548109e-01 -2.170724e-01 -1.192629e-01 -6.106384e-02 -3.097347e-02 -1.724250e-02 -1.170288e-02 -9.713082e-03 -8.994135e-03 -8.574994e-03 -8.117498e-03 -7.552462e-03 -6.905731e-03 -6.224065e-03 -5.548240e-03 -4.906359e-03 -4.314686e-03 -3.780579e-03 -3.305434e-03 -2.887017e-03 -2.521107e-03 -2.202590e-03 -1.926127e-03 -1.686550e-03 -1.479074e-03 -1.299382e-03 -1.143658e-03
-1.094712e-04 -1.517145e-04 -2.038842e-04 -2.680983e-04 -3.468388e-04 -4.429452e-04 -5.595400e-04 -6.998259e-04 -8.666466e-04 -1.061625e-03 -1.283554e-03 -1.525501e-03 -1.769688e-03 -1.978632e-03 -2.080040e-03 -1.941569e-03 -1.329715e-03 1.546426e-04 3.171350e-03 8.767301e-03 1.851198e-02 3.457091e-02 5.957772e-02 9.615532e-02 1.460315e-01 2.074432e-01 2.590194e-01 2.084379e-01 -6.031986e-02 -4.546631e-01 -8.172862e-01 -1.064395e+00 -1.097597e+00 -8.758395e-01 -5.669128e-01 -3.153643e-01 -1.573559e-01 -7.350513e-02 -3.409856e-02 -1.737246e-02 -1.092102e-02 -8.613488e-03 -7.737719e-03 -7.226025e-03 -6.726293e-03 -6.165341e-03 -5.561172e-03 -4.949979e-03 -4.362048e-03 -3.816709e-03 -3.323674e-03 -2.885824e-03 -2.501762e-03 -2.167705e-03 -1.878761e-03 -1.629709e-03 -1.415468e-03 -1.231327e-03 -1.073060e-03 -9.369476e-04 -8.197636e-04
-8.589508e-05 -1.209918e-04 -1.647979e-04 -2.193780e-04 -2.872628e-04 -3.715284e-04 -4.758649e-04 -6.046065e-04 -7.626720e-04 -9.553184e-04 -1.187528e-03 -1.462712e-03 -1.780154e-03 -2.130224e-03 -2.485650e-03 -2.786089e-03 -2.911602e-03 -2.638789e-03 -1.572237e-03 9.529171e-04 5.986429e-03 1.504762e-02 3.008062e-02 5.326666e-02 8.750140e-02 1.410323e-01 2.364307e-01 2.362105e-01 -5.494252e-01 -1.160495e+00 -1.708245e+00 -2.090187e+00 -2.055551e+00 -1.312598e+00 -7.911293e-01 -3.779991e-01 -1.674590e-01 -7.346504e-02 -3.356078e-02 -1.725623e-02 -1.074081e-02 -8.053447e-03 -6.758111e-03 -5.926724e-03 -5.240867e-03 -4.610979e-03 -4.023601e-03 -3.484477e-03 -2.999886e-03 -2.572168e-03 -2.199893e-03 -1.879139e-03 -1.604705e-03 -1.370974e-03 -1.172456e-03 -1.004078e-03 -8.613128e-04 -7.402133e-04 -6.373903e-04 -5.499633e-04 -4.755004e-04
-6.433416e-05 -9.219910e-05 -1.274731e-04 -1.721467e-04 -2.287827e-04 -3.006914e-04 -3.921624e-04 -5.087686e-04 -6.577656e-04 -8.486110e-04 -1.093633e-03 -1.408876e-03 -1.815138e-03 -2.339196e-03 -3.015171e-03 -3.885922e-03 -5.004402e-03 -6.435325e-03 -8.259332e-03 -1.058804e-02 -1.361677e-02 -1.779203e-02 -2.429976e-02 -3.640268e-02 -6.306039e-02 -1.300073e-01 -3.309289e-01 -1.525946e+00 1.966775e+00 1.598399e+00 1.372084e+00 1.551387e+00 4.711111e+00 -1.031451e+00 -3.969713e-01 -1.633717e-01 -7.518263e-02 -3.804682e-02 -2.146172e-02 -1.360349e-02 -9.528662e-03 -7.144818e-03 -5.569357e-03 -4.426760e-03 -3.550319e-03 -2.858660e-03 -2.305914e-03 -1.862002e-03 -1.504876e-03 -1.217364e-03 -9.857436e-04 -7.989757e-04 -6.481774e-04 -5.262209e-04 -4.274019e-04 -3.471640e-04 -2.818712e-04 -2.286228e-04 -1.851027e-04 -1.494595e-04 -1.202104e-04
-4.691970e-05 -6.794367e-05 -9.507451e-05 -1.302037e-04 -1.758850e-04 -2.355987e-04 -3.141330e-04 -4.181446e-04 -5.569871e-04 -7.439536e-04 -9.981590e-04 -1.347424e-03 -1.832746e-03 -2.515284e-03 -3.487396e-03 -4.890157e-03 -6.941279e-03 -9.979595e-03 -1.453551e-02 -2.144150e-02 -3.200357e-02 -4.826908e-02 -7.346820e-02 -1.128148e-01 -1.747258e-01 -2.670852e-01 -3.259443e-01 9.597082e-02 4.265569e-01 1.322133e+00 2.038683e+00 2.276713e+00 1.829912e+00 1.600399e+00 7.138294e-01 2.467627e-01 7.999762e-02 2.087028e-02 5.674941e-04 -5.263083e-03 -5.870803e-03 -4.847783e-03 -3.539004e-03 -2.391644e-03 -1.507745e-03 -8.691467e-04 -4.256068e-04 -1.265895e-04 6.933744e-05 1.934028e-04 2.681666e-04 3.095471e-04 3.286202e-04 3.330244e-04 3.279941e-04 3.170959e-04 3.027456e-04 2.865661e-04 2.696362e-04 2.526608e-04 2.360894e-04
-3.545772e-05 -5.044650e-05 -7.030934e-05 -9.680763e-05 -1.324215e-04 -1.806765e-04 -2.466327e-04 -3.376251e-04 -4.643923e-04 -6.428139e-04 -8.966053e-04 -1.261527e-03 -1.791996e-03 -2.571504e-03 -3.729026e-03 -5.464736e-03 -8.089744e-03 -1.208587e-02 -1.819121e-02 -2.751147e-02 -4.163772e-02 -6.270418e-02 -9.322923e-02 -1.354451e-01 -1.896039e-01 -2.503098e-01 -3.015720e-01 -3.190805e-01 -2.115060e-01 1.518868e-01 5.727685e-01 8.667878e-01 1.019916e+00 9.537214e-01 6.390791e-01 3.323789e-01 1.493034e-01 5.962793e-02 2.034579e-02 4.981851e-03 1.586037e-05 -8.655295e-04 -4.017301e-04 3.193538e-04 9.260833e-04 1.334539e-03 1.562708e-03 1.655067e-03 1.655019e-03 1.596937e-03 1.505554e-03 1.397655e-03 1.284121e-03 1.171695e-03 1.064324e-03 9.641175e-04 8.720113e-04 7.882134e-04 7.124988e-04 6.444004e-04 5.833313e-04
-3.127151e-05 -4.134872e-05 -5.519310e-05 -7.440296e-05 -1.013059e-04 -1.393124e-04 -1.934494e-04 -2.711738e-04 -3.836132e-04 -5.474738e-04 -7.879782e-04 -1.143400e-03 -1.672052e-03 -2.463015e-03 -3.652403e-03 -5.447551e-03 -8.161653e-03 -1.226012e-02 -1.841472e-02 -2.754722e-02 -4.081249e-02 -5.941331e-02 -8.406529e-02 -1.139162e-01 -1.449695e-01 -1.687503e-01 -1.721011e-01 -1.354666e-01 -3.091388e-02 1.471899e-01 3.455833e-01 4.970083e-01 5.626693e-01 5.232458e-01 3.977904e-01 2.520133e-01 1.384925e-01 6.844993e-02 3.135925e-02 1.394244e-02 6.701240e-03 4.153520e-03 3.513483e-03 3.503210e-03 3.599943e-03 3.626875e-03 3.550756e-03 3.389189e-03 3.171577e-03 2.924662e-03 2.668567e-03 2.416858e-03 2.177858e-03 1.956107e-03 1.753580e-03 1.570611e-03 1.406543e-03 1.260162e-03 1.129990e-03 1.014460e-03 9.120300e-04
-3.510019e-05 -4.158724e-05 -5.090047e-05 -6.444617e-05 -8.432303e-05 -1.136648e-04 -1.571557e-04 -2.218073e-04 -3.181304e-04 -4.619024e-04 -6.768272e-04 -9.985167e-04 -1.480394e-03 -2.202300e-03 -3.282700e-03 -4.895187e-03 -7.288941e-03 -1.080982e-02 -1.591165e-02 -2.313334e-02 -3.299336e-02 -4.572431e-02 -6.076075e-02 -7.597226e-02 -8.688378e-02 -8.647861e-02 -6.617711e-02 -1.811626e-02 6.040903e-02 1.597858e-01 2.562123e-01 3.227470e-01 3.423063e-01 3.128818e-01 2.485473e-01 1.736457e-01 1.090307e-01 6.340896e-02 3.554944e-02 2.031652e-02 1.268802e-02 9.117390e-03 7.494458e-03 6.704087e-03 6.215199e-03 5.803689e-03 5.392228e-03 4.966441e-03 4.534576e-03 4.109817e-03 3.703553e-03 3.323558e-03 2.974134e-03 2.656865e-03 2.371452e-03 2.116400e-03 1.889536e-03 1.688374e-03 1.510347e-03 1.352956e-03 1.213854e-03
-4.706248e-05 -5.135076e-05 -5.771250e-05 -6.734330e-05 -8.205446e-05 -1.045748e-04 -1.389974e-04 -1.914402e-04 -2.710166e-04 -3.912568e-04 -5.721638e-04 -8.431487e-04 -1.247120e-03 -1.845980e-03 -2.727555e-03 -4.013383e-03 -5.865288e-03 -8.485668e-03 -1.210097e-02 -1.690931e-02 -2.296363e-02 -2.995824e-02 -3.691001e-02 -4.180266e-02 -4.140473e-02 -3.160131e-02 -8.523123e-03 2.956945e-02 8.015902e-02 1.352969e-01 1.831093e-01 2.122102e-01 2.163906e-01 1.968530e-01 1.613338e-01 1.205442e-01 8.359236e-02 5.519976e-02 3.591238e-02 2.396170e-02 1.701158e-02 1.308894e-02 1.083753e-02 9.440124e-03 8.451820e-03 7.652018e-03 6.942347e-03 6.285199e-03 5.670096e-03 5.096764e-03 4.567387e-03 4.083534e-03 3.645293e-03 3.251320e-03 2.899204e-03 2.585867e-03 2.307902e-03 2.061827e-03 1.844251e-03 1.651981e-03 1.482077e-03
-6.668515e-05 -7.011491e-05 -7.505840e-05 -8.249569e-05 -9.392024e-05 -1.115816e-04 -1.388360e-04 -1.806486e-04 -2.443059e-04 -3.404110e-04 -4.842453e-04 -6.975735e-04 -1.010919e-03 -1.466194e-03 -2.119251e-03 -3.041235e-03 -4.316440e-03 -6.032343e-03 -8.254663e-03 -1.097736e-02 -1.403676e-02 -1.698635e-02 -1.895190e-02 -1.853246e-02 -1.386769e-02 -3.010900e-03 1.533926e-02 4.090990e-02 7.114859e-02 1.012902e-01 1.255216e-01 1.389277e-01 1.392772e-01 1.277336e-01 1.081950e-01 8.564861e-02 6.438748e-02 4.694349e-02 3.403390e-02 2.516662e-02 1.935289e-02 1.559797e-02 1.312084e-02 1.139136e-02 1.008502e-02 9.019052e-03 8.097812e-03 7.274670e-03 6.528287e-03 5.849158e-03 5.232571e-03 4.675255e-03 4.173987e-03 3.725175e-03 3.324856e-03 2.968856e-03 2.652960e-03 2.373060e-03 2.125267e-03 1.905970e-03 1.711871e-03
-9.298722e-05 -9.674532e-05 -1.016386e-04 -1.084407e-04 -1.183265e-04 -1.330501e-04 -1.551932e-04 -1.885060e-04 -2.383656e-04 -3.123741e-04 -4.211072e-04 -5.789856e-04 -8.051620e-04 -1.124163e-03 -1.565732e-03 -2.162855e-03 -2.946225e-03 -3.932481e-03 -5.102715e-03 -6.367712e-03 -7.518865e-03 -8.170978e-03 -7.717254e-03 -5.335681e-03 -9.911230e-05 8.772393e-03 2.153817e-02 3.756166e-02 5.513475e-02 7.169007e-02 8.443457e-02 9.119868e-02 9.113099e-02 8.491695e-02 7.443690e-02 6.205260e-02 4.986719e-02 3.926183e-02 3.081251e-02 2.448329e-02 1.991053e-02 1.663896e-02 1.425950e-02 1.246162e-02 1.103435e-02 9.845620e-03 8.817812e-03 7.907417e-03 7.090603e-03 6.354041e-03 5.689550e-03 5.091210e-03 4.553956e-03 4.072975e-03 3.643524e-03 3.260927e-03 2.920646e-03 2.618353e-03 2.349993e-03 2.111821e-03 1.900422e-03
-1.246043e-04 -1.296495e-04 -1.356070e-04 -1.430641e-04 -1.529006e-04 -1.664070e-04 -1.854406e-04 -2.126276e-04 -2.516119e-04 -3.073439e-04 -3.863804e-04 -4.971243e-04 -6.498610e-04 -8.563298e-04 -1.128380e-03 -1.475012e-03 -1.896799e-03 -2.376456e-03 -2.864399e-03 -3.259051e-03 -3.384005e-03 -2.968642e-03 -1.645035e-03 1.020523e-03 5.443828e-03 1.188352e-02 2.027295e-02 3.008621e-02 4.031947e-02 4.964433e-02 5.671792e-02 6.054934e-02 6.077626e-02 5.773650e-02 5.231211e-02 4.562597e-02 3.872512e-02 3.236678e-02 2.695219e-02 2.257998e-02 1.915517e-02 1.649632e-02 1.441100e-02 1.273530e-02 1.134640e-02 1.016001e-02 9.121828e-03 8.198262e-03 7.368866e-03 6.620882e-03 5.945749e-03 5.337029e-03 4.789276e-03 4.297500e-03 3.856933e-03 3.462981e-03 3.111238e-03 2.797524e-03 2.517923e-03 2.268811e-03 2.046868e-03
-1.599345e-04 -1.669546e-04 -1.747849e-04 -1.838526e-04 -1.947814e-04 -2.084602e-04 -2.261268e-04 -2.494636e-04 -2.806974e-04 -3.226809e-04 -3.789151e-04 -4.534389e-04 -5.504610e-04 -6.735377e-04 -8.240085e-04 -9.983056e-04 -1.183691e-03 -1.352041e-03 -1.451642e-03 -1.397779e-03 -1.064384e-03 -2.811101e-04 1.157723e-03 3.465265e-03 6.811382e-03 1.125352e-02 1.666642e-02 2.269963e-02 2.879286e-02 3.426427e-02 3.845637e-02 4.089482e-02 4.140233e-02 4.012543e-02 3.746783e-02 3.396209e-02 3.013178e-02 2.639010e-02 2.299628e-02 2.006412e-02 1.760064e-02 1.555206e-02 1.384152e-02 1.239335e-02 1.114469e-02 1.004849e-02 9.071984e-03 8.193295e-03 7.398049e-03 6.676590e-03 6.022001e-03 5.428834e-03 4.892376e-03 4.408257e-03 3.972289e-03 3.580414e-03 3.228717e-03 2.913455e-03 2.631092e-03 2.378328e-03 2.152108e-03
-1.972860e-04 -2.066868e-04 -2.168775e-04 -2.281529e-04 -2.409255e-04 -2.557575e-04 -2.733921e-04 -2.947793e-04 -3.210808e-04 -3.536332e-04 -3.938304e-04 -4.428661e-04 -5.012501e-04 -5.679765e-04 -6.391922e-04 -7.062008e-04 -7.526731e-04 -7.510727e-04 -6.586043e-04 -4.135137e-04 6.670036e-05 8.828214e-04 2.144439e-03 3.951301e-03 6.365647e-03 9.379791e-03 1.288813e-02 1.667589e-02 2.043535e-02 2.381248e-02 2.647501e-02 2.818246e-02 2.883519e-02 2.848630e-02 2.731446e-02 2.556982e-02 2.351333e-02 2.136822e-02 1.929398e-02 1.738272e-02 1.567098e-02 1.415794e-02 1.282298e-02 1.163871e-02 1.057882e-02 9.621672e-03 8.751001e-03 7.955258e-03 7.226389e-03 6.558643e-03 5.947630e-03 5.389664e-03 4.881374e-03 4.419489e-03 4.000761e-03 3.621956e-03 3.279878e-03 2.971410e-03 2.693556e-03 2.443473e-03 2.218494e-03
-2.350119e-04 -2.469334e-04 -2.596686e-04 -2.734053e-04 -2.883885e-04 -3.049269e-04 -3.233913e-04 -3.441978e-04 -3.677634e-04 -3.944137e-04 -4.242152e-04 -4.566931e-04 -4.903799e-04 -5.221359e-04 -5.461758e-04 -5.527578e-04 -5.265470e-04 -4.447820e-04 -2.755635e-04 2.314390e-05 5.029098e-04 1.221539e-03 2.236063e-03 3.591629e-03 5.307193e-03 7.360746e-03 9.678513e-03 1.213323e-02 1.455513e-02 1.675581e-02 1.856024e-02 1.983850e-02 2.052804e-02 2.063997e-02 2.024861e-02 1.946875e-02 1.842891e-02 1.724801e-02 1.602068e-02 1.481201e-02 1.365981e-02 1.258105e-02 1.157920e-02 1.065068e-02 9.789248e-03 8.988648e-03 8.243673e-03 7.550417e-03 6.906031e-03 6.308348e-03 5.755530e-03 5.245808e-03 4.777325e-03 4.348069e-03 3.955871e-03 3.598432e-03 3.273373e-03 2.978291e-03 2.710807e-03 2.468608e-03 2.249478e-03
-2.716183e-04 -2.859718e-04 -3.011746e-04 -3.173288e-04 -3.345497e-04 -3.529565e-04 -3.726516e-04 -3.936833e-04 -4.159802e-04 -4.392440e-04 -4.627826e-04 -4.852588e-04 -5.043303e-04 -5.161536e-04 -5.147367e-04 -4.911502e-04 -4.326505e-04 -3.218482e-04 -1.361552e-04 1.521342e-04 5.746796e-04 1.164386e-03 1.950859e-03 2.954131e-03 4.177417e-03 5.600419e-03 7.175242e-03 8.827007e-03 1.046037e-02 1.197162e-02 1.326396e-02 1.426254e-02 1.492504e-02 1.524551e-02 1.525068e-02 1.499066e-02 1.452708e-02 1.392201e-02 1.322988e-02 1.249340e-02 1.174288e-02 1.099796e-02 1.027031e-02 9.566396e-03 8.889689e-03 8.242148e-03 7.625066e-03 7.039446e-03 6.486091e-03 5.965567e-03 5.478139e-03 5.023712e-03 4.601817e-03 4.211630e-03 3.852017e-03 3.521591e-03 3.218783e-03 2.941902e-03 2.689193e-03 2.458888e-03 2.249243e-03
-3.058408e-04 -3.223590e-04 -3.397492e-04 -3.580451e-04 -3.772627e-04 -3.973828e-04 -4.183216e-04 -4.398857e-04 -4.617037e-04 -4.831245e-04 -5.030736e-04 -5.198535e-04 -5.308791e-04 -5.323419e-04 -5.188079e-04 -4.827746e-04 -4.142448e-04 -3.004137e-04 -1.256207e-04 1.282441e-04 4.806662e-04 9.505994e-04 1.553680e-03 2.298754e-03 3.184200e-03 4.194853e-03 5.300460e-03 6.456544e-03 7.608061e-03 8.695544e-03 9.662657e-03 1.046353e-02 1.106820e-02 1.146503e-02 1.165975e-02 1.167182e-02 1.152924e-02 1.126332e-02 1.090438e-02 1.047905e-02 1.000906e-02 9.511252e-03 8.998324e-03 8.479769e-03 7.962802e-03 7.453068e-03 6.955102e-03 6.472605e-03 6.008571e-03 5.565353e-03 5.144692e-03 4.747755e-03 4.375171e-03 4.027098e-03 3.703285e-03 3.403145e-03 3.125833e-03 2.870307e-03 2.635394e-03 2.419840e-03 2.222355e-03
-3.366883e-04 -3.549798e-04 -3.741377e-04 -3.941403e-04 -4.149283e-04 -4.363828e-04 -4.582946e-04 -4.803193e-04 -5.019142e-04 -5.222524e-04 -5.401075e-04 -5.537061e-04 -5.605436e-04 -5.571682e-04 -5.389451e-04 -4.998248e-04 -4.321617e-04 -3.266464e-04 -1.724404e-04 4.239082e-05 3.300551e-04 7.017700e-04 1.166091e-03 1.726979e-03 2.381899e-03 3.120350e-03 3.923269e-03 4.763673e-03 5.608661e-03 6.422593e-03 7.170932e-03 7.824018e-03 8.360017e-03 8.766520e-03 9.040592e-03 9.187478e-03 9.218445e-03 9.148336e-03 8.993357e-03 8.769411e-03 8.491071e-03 8.171123e-03 7.820522e-03 7.448566e-03 7.063139e-03 6.670954e-03 6.277727e-03 5.888304e-03 5.506740e-03 5.136348e-03 4.779752e-03 4.438935e-03 4.115294e-03 3.809708e-03 3.522609e-03 3.254053e-03 3.003788e-03 2.771327e-03 2.555999e-03 2.357006e-03 2.173468e-03
-3.634564e-04 -3.830584e-04 -4.034859e-04 -4.246722e-04 -4.465001e-04 -4.687804e-04 -4.912219e-04 -5.133911e-04 -5.346585e-04 -5.541297e-04 -5.705584e-04 -5.822407e-04 -5.868935e-04 -5.815207e-04 -5.622821e-04 -5.243835e-04 -4.620197e-04 -3.684102e-04 -2.359755e-04 -5.670137e-05 1.772733e-04 4.728386e-04 8.349062e-04 1.265313e-03 1.761801e-03 2.317276e-03 2.919557e-03 3.551784e-03 4.193504e-03 4.822360e-03 5.416121e-03 5.954719e-03 6.421941e-03 6.806512e-03 7.102450e-03 7.308742e-03 7.428509e-03 7.467920e-03 7.435076e-03 7.339045e-03 7.189128e-03 6.994377e-03 6.763320e-03 6.503821e-03 6.223036e-03 5.927404e-03 5.622653e-03 5.313807e-03 5.005204e-03 4.700511e-03 4.402750e-03 4.114336e-03 3.837124e-03 3.572465e-03 3.321268e-03 3.084057e-03 2.861042e-03 2.652170e-03 2.457183e-03 2.275666e-03 2.107088e-03
-3.857163e-04 -4.061413e-04 -4.273155e-04 -4.491352e-04 -4.714393e-04 -4.939896e-04 -5.164438e-04 -5.383207e-04 -5.589572e-04 -5.774551e-04 -5.926174e-04 -6.028756e-04 -6.062116e-04 -6.000787e-04 -5.813334e-04 -5.461925e-04 -4.902346e-04 -4.084713e-04 -2.955118e-04 -1.458444e-04 4.575473e-05 2.836915e-04 5.709360e-04 9.083808e-04 1.294267e-03 1.723784e-03 2.188952e-03 2.678858e-03 3.180252e-03 3.678476e-03 4.158578e-03 4.606472e-03 5.009952e-03 5.359445e-03 5.648404e-03 5.873354e-03 6.033636e-03 6.130967e-03 6.168895e-03 6.152267e-03 6.086753e-03 5.978459e-03 5.833629e-03 5.658432e-03 5.458802e-03 5.240326e-03 5.008162e-03 4.766984e-03 4.520946e-03 4.273661e-03 4.028207e-03 3.787140e-03 3.552523e-03 3.325963e-03 3.108661e-03 2.901457e-03 2.704884e-03 2.519214e-03 2.344507e-03 2.180652e-03 2.027402e-03
-4.032866e-04 -4.240596e-04 -4.454748e-04 -4.673983e-04 -4.896365e-04 -5.119182e-04 -5.338714e-04 -5.549954e-04 -5.746262e-04 -5.918974e-04 -6.056947e-04 -6.146075e-04 -6.168801e-04 -6.103678e-04 -5.925060e-04 -5.603016e-04 -5.103602e-04 -4.389618e-04 -3.421997e-04 -2.161896e-04 -5.735403e-05 1.372299e-04 3.694416e-04 6.397267e-04 9.467576e-04 1.287204e-03 1.655664e-03 2.044799e-03 2.445672e-03 2.848271e-03 3.242153e-03 3.617132e-03 3.963923e-03 4.274660e-03 4.543246e-03 4.765519e-03 4.939239e-03 5.063937e-03 5.140679e-03 5.171777e-03 5.160503e-03 5.110806e-03 5.027074e-03 4.913921e-03 4.776012e-03 4.617923e-03 4.444022e-03 4.258389e-03 4.064748e-03 3.866430e-03 3.666348e-03 3.466998e-03 3.270467e-03 3.078455e-03 2.892307e-03 2.713045e-03 2.541410e-03 2.377898e-03 2.222798e-03 2.076228e-03 1.938165e-03
-4.161943e-04 -4.368801e-04 -4.580778e-04 -4.796299e-04 -5.013193e-04 -5.228544e-04 -5.438493e-04 -5.638022e-04 -5.820686e-04 -5.978329e-04 -6.100771e-04 -6.175491e-04 -6.187345e-04 -6.118338e-04 -5.947526e-04 -5.651106e-04 -5.202766e-04 -4.574392e-04 -3.737165e-04 -2.663121e-04 -1.327134e-04 2.907522e-05 2.202800e-04 4.411119e-04 6.905563e-04 9.662317e-04 1.264347e-03 1.579777e-03 1.906260e-03 2.236706e-03 2.563587e-03 2.879363e-03 3.176901e-03 3.449843e-03 3.692892e-03 3.901988e-03 4.074386e-03 4.208646e-03 4.304534e-03 4.362887e-03 4.385441e-03 4.374641e-03 4.333467e-03 4.265258e-03 4.173553e-03 4.061961e-03 3.934041e-03 3.793208e-03 3.642663e-03 3.485339e-03 3.323867e-03 3.160560e-03 2.997408e-03 2.836087e-03 2.677974e-03 2.524174e-03 2.375539e-03 2.232705e-03 2.096114e-03 1.966047e-03 1.842645e-03
-4.246312e-04 -4.448516e-04 -4.654395e-04 -4.862192e-04 -5.069584e-04 -5.273546e-04 -5.470202e-04 -5.654645e-04 -5.820749e-04 -5.960963e-04 -6.066098e-04 -6.125136e-04 -6.125074e-04 -6.050830e-04 -5.885262e-04 -5.609333e-04 -5.202471e-04 -4.643173e-04 -3.909874e-04 -2.982101e-04 -1.841876e-04 -4.753191e-05 1.125672e-04 2.961815e-04 5.025091e-04 7.297838e-04 9.752460e-04 1.235187e-03 1.505067e-03 1.779711e-03 2.053546e-03 2.320883e-03 2.576198e-03 2.814392e-03 3.031012e-03 3.222416e-03 3.385868e-03 3.519581e-03 3.622699e-03 3.695229e-03 3.737950e-03 3.752296e-03 3.740223e-03 3.704082e-03 3.646494e-03 3.570230e-03 3.478110e-03 3.372915e-03 3.257314e-03 3.133811e-03 3.004704e-03 2.872059e-03 2.737699e-03 2.603199e-03 2.469895e-03 2.338896e-03 2.211099e-03 2.087208e-03 1.967760e-03 1.853141e-03 1.743608e-03
-4.289101e-04 -4.483535e-04 -4.680139e-04 -4.877035e-04 -5.071813e-04 -5.261422e-04 -5.442052e-04 -5.608999e-04 -5.756527e-04 -5.877729e-04 -5.964386e-04 -6.006861e-04 -5.994024e-04 -5.913241e-04 -5.750451e-04 -5.490356e-04 -5.116760e-04 -4.613069e-04 -3.962971e-04 -3.151301e-04 -2.165046e-04 -9.944714e-05 3.657376e-05 1.915393e-04 3.647908e-04 5.549699e-04 7.599990e-04 9.771078e-04 1.202910e-03 1.433527e-03 1.664745e-03 1.892205e-03 2.111592e-03 2.318829e-03 2.510239e-03 2.682685e-03 2.833661e-03 2.961353e-03 3.064649e-03 3.143122e-03 3.196975e-03 3.226972e-03 3.234353e-03 3.220732e-03 3.188011e-03 3.138276e-03 3.073719e-03 2.996557e-03 2.908970e-03 2.813046e-03 2.710745e-03 2.603863e-03 2.494022e-03 2.382655e-03 2.271009e-03 2.160146e-03 2.050955e-03 1.944162e-03 1.840347e-03 1.739959e-03 1.643327e-03
-4.294254e-04 -4.478486e-04 -4.663403e-04 -4.847054e-04 -5.027002e-04 -5.200235e-04 -5.363075e-04 -5.511080e-04 -5.638946e-04 -5.740413e-04 -5.808187e-04 -5.833879e-04 -5.807988e-04 -5.719938e-04 -5.558177e-04 -5.310374e-04 -4.963714e-04 -4.505311e-04 -3.922742e-04 -3.204693e-04 -2.341698e-04 -1.326933e-04 -1.570209e-05 1.167235e-04 2.640239e-04 4.251205e-04 5.984024e-04 7.817443e-04 9.725577e-04 1.167873e-03 1.364449e-03 1.558898e-03 1.747828e-03 1.927975e-03 2.096331e-03 2.250251e-03 2.387538e-03 2.506496e-03 2.605962e-03 2.685301e-03 2.744385e-03 2.783551e-03 2.803542e-03 2.805442e-03 2.790601e-03 2.760570e-03 2.717025e-03 2.661708e-03 2.596369e-03 2.522723e-03 2.442408e-03 2.356958e-03 2.267784e-03 2.176158e-03 2.083211e-03 1.989928e-03 1.897155e-03 1.805605e-03 1.715868e-03 1.628417e-03 1.543625e-03
-4.266178e-04 -4.438438e-04 -4.609975e-04 -4.778815e-04 -4.942542e-04 -5.098234e-04 -5.242393e-04 -5.370878e-04 -5.478834e-04 -5.560638e-04 -5.609854e-04 -5.619214e-04 -5.580631e-04 -5.485259e-04 -5.323606e-04 -5.085711e-04 -4.761406e-04 -4.340649e-04 -3.813941e-04 -3.172819e-04 -2.410397e-04 -1.521944e-04 -5.054474e-05 6.378710e-05 1.903139e-04 3.281564e-04 4.760349e-04 6.322824e-04 7.948801e-04 9.615148e-04 1.129655e-03 1.296641e-03 1.459785e-03 1.616468e-03 1.764238e-03 1.900892e-03 2.024547e-03 2.133689e-03 2.227201e-03 2.304376e-03 2.364908e-03 2.408867e-03 2.436661e-03 2.448996e-03 2.446815e-03 2.431253e-03 2.403578e-03 2.365141e-03 2.317333e-03 2.261541e-03 2.199118e-03 2.131353e-03 2.059452e-03 1.984525e-03 1.907576e-03 1.829497e-03 1.751072e-03 1.672975e-03 1.595780e-03 1.519964e-03 1.445917e-03
-4.209462e-04 -4.368581e-04 -4.525695e-04 -4.678841e-04 -4.825669e-04 -4.963386e-04 -5.088709e-04 -5.197817e-04 -5.286308e-04 -5.349167e-04 -5.380751e-04 -5.374788e-04 -5.324415e-04 -5.222246e-04 -5.060481e-04 -4.831074e-04 -4.525945e-04 -4.137256e-04 -3.657737e-04 -3.081060e-04 -2.402245e-04 -1.618079e-04 -7.275186e-05 2.679456e-05 1.364003e-04 2.553340e-04 3.825594e-04 5.167452e-04 6.562909e-04 7.993682e-04 9.439760e-04 1.088005e-03 1.229309e-03 1.365782e-03 1.495426e-03 1.616417e-03 1.727162e-03 1.826340e-03 1.912931e-03 1.986229e-03 2.045843e-03 2.091683e-03 2.123939e-03 2.143048e-03 2.149658e-03 2.144587e-03 2.128784e-03 2.103290e-03 2.069197e-03 2.027618e-03 1.979658e-03 1.926386e-03 1.868824e-03 1.807923e-03 1.744560e-03 1.679529e-03 1.613540e-03 1.547217e-03 1.481101e-03 1.415653e-03 1.351263e-03
-4.128657e-04 -4.273990e-04 -4.416189e-04 -4.553336e-04 -4.683177e-04 -4.803077e-04 -4.909988e-04 -5.000421e-04 -5.070416e-04 -5.115531e-04 -5.130842e-04 -5.110963e-04 -5.050086e-04 -4.942055e-04 -4.780471e-04 -4.558834e-04 -4.270726e-04 -3.910030e-04 -3.471188e-04 -2.949489e-04 -2.341369e-04 -1.644721e-04 -8.591844e-05 1.359425e-06 9.697669e-05 2.003161e-04 3.105257e-04 4.265265e-04 5.470329e-04 6.705824e-04 7.955759e-04 9.203259e-04 1.043109e-03 1.162222e-03 1.276036e-03 1.383044e-03 1.481908e-03 1.571494e-03 1.650893e-03 1.719440e-03 1.776716e-03 1.822540e-03 1.856960e-03 1.880230e-03 1.892783e-03 1.895201e-03 1.888190e-03 1.872541e-03 1.849107e-03 1.818775e-03 1.782438e-03 1.740978e-03 1.695248e-03 1.646057e-03 1.594161e-03 1.540257e-03 1.484976e-03 1.428884e-03 1.372482e-03 1.316204e-03 1.260426e-03
-4.028113e-04 -4.159456e-04 -4.286700e-04 -4.408004e-04 -4.521232e-04 -4.623925e-04 -4.713284e-04 -4.786147e-04 -4.838978e-04 -4.867868e-04 -4.868543e-04 -4.836394e-04 -4.766522e-04 -4.653808e-04 -4.493012e-04 -4.278890e-04 -4.006349e-04 -3.670623e-04 -3.267479e-04 -2.793431e-04 -2.245972e-04 -1.623801e-04 -9.270328e-05 -1.573806e-05 6.817051e-05 1.584959e-04 2.545294e-04 3.553865e-04 4.600228e-04 5.672564e-04 6.757978e-04 7.842863e-04 8.913290e-04 9.955426e-04 1.095594e-03 1.190241e-03 1.278364e-03 1.358994e-03 1.431337e-03 1.494786e-03 1.548926e-03 1.593532e-03 1.628562e-03 1.654146e-03 1.670563e-03 1.678221e-03 1.677637e-03 1.669413e-03 1.654210e-03 1.632727e-03 1.605685e-03 1.573803e-03 1.537790e-03 1.498326e-03 1.456059e-03 1.411591e-03 1.365478e-03 1.318227e-03 1.270290e-03 1.222070e-03 1.173919e-03
-3.911872e-04 -4.029372e-04 -4.141982e-04 -4.247953e-04 -4.345284e-04 -4.431707e-04 -4.504671e-04 -4.561333e-04 -4.598557e-04 -4.612920e-04 -4.600732e-04 -4.558063e-04 -4.480794e-04 -4.364681e-04 -4.205438e-04 -3.998844e-04 -3.740867e-04 -3.427805e-04 -3.056449e-04 -2.624247e-04 -2.129481e-04 -1.571432e-04 -9.505351e-05 -2.685093e-05 4.715485e-05 1.265113e-04 2.106234e-04 2.987594e-04 3.900628e-04 4.835700e-04 5.782329e-04 6.729463e-04 7.665772e-04 8.579971e-04 9.461126e-04 1.029896e-03 1.108411e-03 1.180838e-03 1.246487e-03 1.304815e-03 1.355430e-03 1.398089e-03 1.432700e-03 1.459307e-03 1.478080e-03 1.489301e-03 1.493346e-03 1.490666e-03 1.481772e-03 1.467213e-03 1.447567e-03 1.423418e-03 1.395350e-03 1.363934e-03 1.329716e-03 1.293215e-03 1.254915e-03 1.215263e-03 1.174666e-03 1.133488e-03 1.092056e-03
-3.783599e-04 -3.887677e-04 -3.986240e-04 -4.077645e-04 -4.160040e-04 -4.231346e-04 -4.289257e-04 -4.331235e-04 -4.354516e-04 -4.356119e-04 -4.332869e-04 -4.281429e-04 -4.198347e-04 -4.080112e-04 -3.923229e-04 -3.724308e-04 -3.480164e-04 -3.187936e-04 -2.845208e-04 -2.450140e-04 -2.001599e-04 -1.499283e-04 -9.438365e-05 -3.369370e-05 3.186362e-05 1.018974e-04 1.759043e-04 2.532743e-04 3.332995e-04 4.151881e-04 4.980822e-04 5.810779e-04 6.632486e-04 7.436688e-04 8.214383e-04 8.957052e-04 9.656873e-04 1.030690e-03 1.090120e-03 1.143497e-03 1.190459e-03 1.230766e-03 1.264295e-03 1.291036e-03 1.311084e-03 1.324627e-03 1.331934e-03 1.333344e-03 1.329247e-03 1.320074e-03 1.306285e-03 1.288354e-03 1.266758e-03 1.241973e-03 1.214460e-03 1.184660e-03 1.152992e-03 1.119846e-03 1.085584e-03 1.050533e-03 1.014991e-03
-3.646551e-04 -3.737828e-04 -3.823122e-04 -3.900905e-04 -3.969474e-04 -4.026941e-04 -4.071237e-04 -4.100109e-04 -4.111133e-04 -4.101723e-04 -4.069162e-04 -4.010625e-04 -3.923226e-04 -3.804071e-04 -3.650316e-04 -3.459246e-04 -3.228357e-04 -2.955447e-04 -2.638716e-04 -2.276865e-04 -1.869193e-04 -1.415694e-04 -9.171372e-05 -3.751290e-05 2.078395e-05 8.283769e-05 1.482204e-04 2.164199e-04 2.868471e-04 3.588472e-04 4.317131e-04 5.047012e-04 5.770493e-04 6.479948e-04 7.167933e-04 7.827371e-04 8.451710e-04 9.035073e-04 9.572373e-04 1.005940e-03 1.049289e-03 1.087052e-03 1.119093e-03 1.145370e-03 1.165923e-03 1.180875e-03 1.190415e-03 1.194794e-03 1.194309e-03 1.189298e-03 1.180125e-03 1.167172e-03 1.150830e-03 1.131492e-03 1.109544e-03 1.085361e-03 1.059303e-03 1.031709e-03 1.002894e-03 9.731531e-04 9.427522e-04
-3.503569e-04 -3.582806e-04 -3.655734e-04 -3.720943e-04 -3.776880e-04 -3.821843e-04 -3.853984e-04 -3.871316e-04 -3.871723e-04 -3.852973e-04 -3.812746e-04 -3.748660e-04 -3.658311e-04 -3.539316e-04 -3.389372e-04 -3.206309e-04 -2.988169e-04 -2.733269e-04 -2.440285e-04 -2.108326e-04 -1.737011e-04 -1.326537e-04 -8.777375e-05 -3.921299e-05 1.280558e-05 6.798698e-05 1.259655e-04 1.863088e-04 2.485239e-04 3.120657e-04 3.763480e-04 4.407557e-04 5.046581e-04 5.674241e-04 6.284356e-04 6.871024e-04 7.428750e-04 7.952558e-04 8.438090e-04 8.881678e-04 9.280396e-04 9.632084e-04 9.935351e-04 1.018956e-03 1.039477e-03 1.055172e-03 1.066172e-03 1.072660e-03 1.074863e-03 1.073043e-03 1.067487e-03 1.058504e-03 1.046411e-03 1.031533e-03 1.014191e-03 9.947044e-04 9.733779e-04 9.505047e-04 9.263613e-04 9.012062e-04 8.752781e-04
-3.357088e-04 -3.425134e-04 -3.486670e-04 -3.540405e-04 -3.584931e-04 -3.618724e-04 -3.640143e-04 -3.647444e-04 -3.638785e-04 -3.612251e-04 -3.565865e-04 -3.497627e-04 -3.405537e-04 -3.287643e-04 -3.142081e-04 -2.967128e-04 -2.761258e-04 -2.523198e-04 -2.251990e-04 -1.947054e-04 -1.608237e-04 -1.235872e-04 -8.308173e-05 -3.944895e-05 7.111831e-06 5.634338e-05 1.079320e-04 1.615109e-04 2.166651e-04 2.729386e-04 3.298427e-04 3.868656e-04 4.434832e-04 4.991702e-04 5.534115e-04 6.057134e-04 6.556134e-04 7.026898e-04 7.465695e-04 7.869337e-04 8.235227e-04 8.561382e-04 8.846441e-04 9.089653e-04 9.290855e-04 9.450432e-04 9.569266e-04 9.648685e-04 9.690395e-04 9.696421e-04 9.669038e-04 9.610707e-04 9.524021e-04 9.411643e-04 9.276260e-04 9.120535e-04 8.947075e-04 8.758396e-04 8.556898e-04 8.344848e-04 8.124363e-04
