4.730369e-04 4.843284e-04 4.950204e-04 5.049734e-04 5.140355e-04 5.220417e-04 5.288148e-04 5.341660e-04 5.378960e-04 5.397968e-04 5.396539e-04 5.372487e-04 5.323624e-04 5.247792e-04 5.142918e-04 5.007058e-04 4.838454e-04 4.635599e-04 4.397292e-04 4.122702e-04 3.811432e-04 3.463567e-04 3.079729e-04 2.661107e-04 2.209486e-04 1.727254e-04 1.217395e-04 6.834594e-05 1.295183e-05 -4.398982e-05 -1.019884e-04 -1.605254e-04 -2.190648e-04 -2.770646e-04 -3.339885e-04 -3.893178e-04 -4.425617e-04 -4.932676e-04 -5.410298e-04 -5.854963e-04 -6.263736e-04 -6.634307e-04 -6.964995e-04 -7.254752e-04 -7.503136e-04 -7.710278e-04 -7.876831e-04 -8.003922e-04 -8.093079e-04 -8.146175e-04 -8.165355e-04 -8.152973e-04 -8.111530e-04 -8.043616e-04 -7.951858e-04 -7.838873e-04 -7.707230e-04 -7.559415e-04 -7.397807e-04 -7.224658e-04 -7.042073e-04
5.048981e-04 5.180788e-04 5.306871e-04 5.425681e-04 5.535513e-04 5.634498e-04 5.720611e-04 5.791674e-04 5.845370e-04 5.879255e-04 5.890788e-04 5.877354e-04 5.836310e-04 5.765025e-04 5.660940e-04 5.521626e-04 5.344857e-04 5.128683e-04 4.871508e-04 4.572170e-04 4.230024e-04 3.845007e-04 3.417707e-04 2.949415e-04 2.442155e-04 1.898704e-04 1.322583e-04 7.180219e-05 8.990531e-06 -5.563091e-05 -1.214695e-04 -1.878981e-04 -2.542685e-04 -3.199267e-04 -3.842273e-04 -4.465487e-04 -5.063066e-04 -5.629667e-04 -6.160553e-04 -6.651673e-04 -7.099724e-04 -7.502183e-04 -7.857318e-04 -8.164170e-04 -8.422522e-04 -8.632842e-04 -8.796221e-04 -8.914294e-04 -8.989158e-04 -9.023284e-04 -9.019439e-04 -8.980595e-04 -8.909860e-04 -8.810407e-04 -8.685410e-04 -8.537993e-04 -8.371185e-04 -8.187887e-04 -7.990841e-04 -7.782613e-04 -7.565576e-04
5.387877e-04 5.541202e-04 5.689263e-04 5.830346e-04 5.962544e-04 6.083749e-04 6.191654e-04 6.283752e-04 6.357349e-04 6.409582e-04 6.437438e-04 6.437793e-04 6.407453e-04 6.343207e-04 6.241896e-04 6.100485e-04 5.916153e-04 5.686382e-04 5.409062e-04 5.082592e-04 4.705984e-04 4.278956e-04 3.802026e-04 3.276575e-04 2.704903e-04 2.090246e-04 1.436779e-04 7.495709e-05 3.451568e-06 -7.017711e-05 -1.452087e-04 -2.208801e-04 -2.964034e-04 -3.709848e-04 -4.438439e-04 -5.142329e-04 -5.814540e-04 -6.448751e-04 -7.039429e-04 -7.581925e-04 -8.072545e-04 -8.508579e-04 -8.888303e-04 -9.210948e-04 -9.476648e-04 -9.686358e-04 -9.841767e-04 -9.945190e-04 -9.999460e-04 -1.000782e-03 -9.973804e-04 -9.901159e-04 -9.793728e-04 -9.655379e-04 -9.489932e-04 -9.301099e-04 -9.092436e-04 -8.867305e-04 -8.628848e-04 -8.379967e-04 -8.123316e-04
5.747530e-04 5.925312e-04 6.098526e-04 6.265287e-04 6.423474e-04 6.570720e-04 6.704401e-04 6.821643e-04 6.919321e-04 6.994081e-04 7.042359e-04 7.060419e-04 7.044402e-04 6.990388e-04 6.894476e-04 6.752871e-04 6.561994e-04 6.318600e-04 6.019906e-04 5.663726e-04 5.248604e-04 4.773944e-04 4.240131e-04 3.648623e-04 3.002027e-04 2.304134e-04 1.559918e-04 7.754888e-05 -4.199454e-06 -8.844605e-05 -1.743098e-04 -2.608567e-04 -3.471227e-04 -4.321393e-04 -5.149583e-04 -5.946765e-04 -6.704579e-04 -7.415537e-04 -8.073180e-04 -8.672197e-04 -9.208496e-04 -9.679233e-04 -1.008279e-03 -1.041875e-03 -1.068776e-03 -1.089147e-03 -1.103238e-03 -1.111372e-03 -1.113926e-03 -1.111322e-03 -1.104012e-03 -1.092464e-03 -1.077150e-03 -1.058542e-03 -1.037095e-03 -1.013250e-03 -9.874195e-04 -9.599921e-04 -9.313246e-04 -9.017426e-04 -8.715399e-04
6.128168e-04 6.333683e-04 6.535618e-04 6.731920e-04 6.920244e-04 7.097943e-04 7.262050e-04 7.409276e-04 7.536009e-04 7.638326e-04 7.712013e-04 7.752608e-04 7.755449e-04 7.715746e-04 7.628677e-04 7.489492e-04 7.293650e-04 7.036969e-04 6.715783e-04 6.327127e-04 5.868907e-04 5.340078e-04 4.740804e-04 4.072592e-04 3.338395e-04 2.542669e-04 1.691378e-04 7.919361e-05 -1.469009e-05 -1.115214e-04 -2.102151e-04 -3.096198e-04 -4.085490e-04 -5.058144e-04 -6.002579e-04 -6.907844e-04 -7.763899e-04 -8.561868e-04 -9.294226e-04 -9.954943e-04 -1.053956e-03 -1.104518e-03 -1.147049e-03 -1.181559e-03 -1.208192e-03 -1.227210e-03 -1.238973e-03 -1.243921e-03 -1.242557e-03 -1.235425e-03 -1.223097e-03 -1.206155e-03 -1.185181e-03 -1.160741e-03 -1.133380e-03 -1.103612e-03 -1.071918e-03 -1.038741e-03 -1.004481e-03 -9.695018e-04 -9.341234e-04
6.529704e-04 6.766576e-04 7.001225e-04 7.231430e-04 7.454622e-04 7.667858e-04 7.867802e-04 8.050706e-04 8.212406e-04 8.348324e-04 8.453490e-04 8.522572e-04 8.549941e-04 8.529742e-04 8.456009e-04 8.322791e-04 8.124320e-04 7.855198e-04 7.510605e-04 7.086533e-04 6.580017e-04 5.989376e-04 5.314426e-04 4.556675e-04 3.719463e-04 2.808054e-04 1.829643e-04 7.932990e-05 -2.901871e-05 -1.408531e-04 -2.548263e-04 -3.695091e-04 -4.834315e-04 -5.951267e-04 -7.031737e-04 -8.062398e-04 -9.031169e-04 -9.927529e-04 -1.074275e-03 -1.147005e-03 -1.210468e-03 -1.264389e-03 -1.308686e-03 -1.343457e-03 -1.368959e-03 -1.385586e-03 -1.393847e-03 -1.394338e-03 -1.387718e-03 -1.374688e-03 -1.355968e-03 -1.332280e-03 -1.304330e-03 -1.272800e-03 -1.238332e-03 -1.201527e-03 -1.162936e-03 -1.123059e-03 -1.082344e-03 -1.041187e-03 -9.999335e-04
6.951629e-04 7.223849e-04 7.495651e-04 7.764662e-04 8.028095e-04 8.282707e-04 8.524767e-04 8.750029e-04 8.953711e-04 9.130489e-04 9.274507e-04 9.379408e-04 9.438391e-04 9.444301e-04 9.389747e-04 9.267263e-04 9.069511e-04 8.789514e-04 8.420932e-04 7.958358e-04 7.397638e-04 6.736190e-04 5.973303e-04 5.110404e-04 4.151267e-04 3.102142e-04 1.971782e-04 7.713724e-05 -4.856706e-05 -1.784003e-04 -3.106767e-04 -4.436086e-04 -5.753623e-04 -7.041162e-04 -8.281188e-04 -9.457430e-04 -1.055533e-03 -1.156246e-03 -1.246874e-03 -1.326669e-03 -1.395141e-03 -1.452058e-03 -1.497426e-03 -1.531474e-03 -1.554620e-03 -1.567442e-03 -1.570645e-03 -1.565028e-03 -1.551451e-03 -1.530810e-03 -1.504005e-03 -1.471925e-03 -1.435425e-03 -1.395315e-03 -1.352350e-03 -1.307222e-03 -1.260557e-03 -1.212914e-03 -1.164784e-03 -1.116594e-03 -1.068709e-03
7.392900e-04 7.704821e-04 8.018678e-04 8.331975e-04 8.641722e-04 8.944384e-04 9.235824e-04 9.511263e-04 9.765237e-04 9.991577e-04 1.018340e-03 1.033315e-03 1.043260e-03 1.047301e-03 1.044522e-03 1.033984e-03 1.014752e-03 9.859216e-04 9.466583e-04 8.962331e-04 8.340672e-04 7.597753e-04 6.732070e-04 5.744850e-04 4.640346e-04 3.426031e-04 2.112654e-04 7.141420e-05 -7.526553e-05 -2.268388e-04 -3.811770e-04 -5.360257e-04 -6.890807e-04 -8.380665e-04 -9.808145e-04 -1.115333e-03 -1.239871e-03 -1.352962e-03 -1.453460e-03 -1.540555e-03 -1.613776e-03 -1.672975e-03 -1.718306e-03 -1.750189e-03 -1.769268e-03 -1.776374e-03 -1.772470e-03 -1.758619e-03 -1.735935e-03 -1.705551e-03 -1.668588e-03 -1.626130e-03 -1.579205e-03 -1.528768e-03 -1.475696e-03 -1.420777e-03 -1.364712e-03 -1.308116e-03 -1.251519e-03 -1.195371e-03 -1.140048e-03
7.851797e-04 8.208123e-04 8.569401e-04 8.933058e-04 9.295942e-04 9.654246e-04 1.000343e-03 1.033817e-03 1.065226e-03 1.093858e-03 1.118909e-03 1.139479e-03 1.154579e-03 1.163137e-03 1.164017e-03 1.156038e-03 1.138003e-03 1.108740e-03 1.067145e-03 1.012235e-03 9.432051e-04 8.594900e-04 7.608223e-04 6.472855e-04 5.193578e-04 3.779407e-04 2.243683e-04 6.039532e-05 -1.118384e-04 -2.898662e-04 -4.709735e-04 -6.522919e-04 -8.309041e-04 -1.003951e-03 -1.168738e-03 -1.322825e-03 -1.464106e-03 -1.590871e-03 -1.701836e-03 -1.796161e-03 -1.873445e-03 -1.933695e-03 -1.977292e-03 -2.004936e-03 -2.017589e-03 -2.016417e-03 -2.002730e-03 -1.977921e-03 -1.943424e-03 -1.900663e-03 -1.851020e-03 -1.795808e-03 -1.736247e-03 -1.673453e-03 -1.608429e-03 -1.542060e-03 -1.475121e-03 -1.408272e-03 -1.342073e-03 -1.276984e-03 -1.213380e-03
8.325758e-04 8.731507e-04 9.146017e-04 9.566708e-04 9.990331e-04 1.041286e-03 1.082938e-03 1.123402e-03 1.161979e-03 1.197856e-03 1.230094e-03 1.257628e-03 1.279266e-03 1.293700e-03 1.299517e-03 1.295226e-03 1.279295e-03 1.250195e-03 1.206462e-03 1.146766e-03 1.069988e-03 9.753083e-04 8.622843e-04 7.309319e-04 5.817874e-04 4.159501e-04 2.350984e-04 4.147307e-05 -1.621725e-04 -3.726553e-04 -5.864748e-04 -7.999465e-04 -1.009348e-03 -1.211068e-03 -1.401746e-03 -1.578395e-03 -1.738503e-03 -1.880096e-03 -2.001781e-03 -2.102747e-03 -2.182748e-03 -2.242055e-03 -2.281391e-03 -2.301860e-03 -2.304861e-03 -2.292012e-03 -2.265064e-03 -2.225837e-03 -2.176154e-03 -2.117788e-03 -2.052428e-03 -1.981644e-03 -1.906869e-03 -1.829385e-03 -1.750323e-03 -1.670661e-03 -1.591232e-03 -1.512731e-03 -1.435728e-03 -1.360677e-03 -1.287934e-03
8.811186e-04 9.271624e-04 9.745569e-04 1.023054e-03 1.072329e-03 1.121966e-03 1.171444e-03 1.220123e-03 1.267229e-03 1.311836e-03 1.352859e-03 1.389042e-03 1.418955e-03 1.440997e-03 1.453414e-03 1.454319e-03 1.441742e-03 1.413682e-03 1.368188e-03 1.303450e-03 1.217912e-03 1.110383e-03 9.801650e-04 8.271601e-04 6.519678e-04 4.559482e-04 2.412467e-04 1.077161e-05 -2.318794e-04 -4.825407e-04 -7.366415e-04 -9.893993e-04 -1.236027e-03 -1.471939e-03 -1.692942e-03 -1.895395e-03 -2.076329e-03 -2.233525e-03 -2.365543e-03 -2.471712e-03 -2.552080e-03 -2.607341e-03 -2.638731e-03 -2.647922e-03 -2.636911e-03 -2.607906e-03 -2.563228e-03 -2.505224e-03 -2.436186e-03 -2.358303e-03 -2.273607e-03 -2.183953e-03 -2.090994e-03 -1.996182e-03 -1.900765e-03 -1.805795e-03 -1.712145e-03 -1.620519e-03 -1.531474e-03 -1.445432e-03 -1.362704e-03
9.303230e-04 9.823762e-04 1.036364e-03 1.092064e-03 1.149165e-03 1.207253e-03 1.265790e-03 1.324093e-03 1.381316e-03 1.436421e-03 1.488165e-03 1.535074e-03 1.575438e-03 1.607307e-03 1.628498e-03 1.636620e-03 1.629129e-03 1.603393e-03 1.556796e-03 1.486860e-03 1.391402e-03 1.268699e-03 1.117665e-03 9.380177e-04 7.304247e-04 4.965986e-04 2.393367e-04 -3.751321e-05 -3.291639e-04 -6.300729e-04 -9.341870e-04 -1.235226e-03 -1.526985e-03 -1.803620e-03 -2.059906e-03 -2.291445e-03 -2.494800e-03 -2.667575e-03 -2.808425e-03 -2.917006e-03 -2.993884e-03 -3.040408e-03 -3.058562e-03 -3.050812e-03 -3.019952e-03 -2.968956e-03 -2.900861e-03 -2.818651e-03 -2.725176e-03 -2.623093e-03 -2.514814e-03 -2.402489e-03 -2.287992e-03 -2.172926e-03 -2.058631e-03 -1.946206e-03 -1.836528e-03 -1.730275e-03 -1.627954e-03 -1.529925e-03 -1.436419e-03
9.795537e-04 1.038155e-03 1.099402e-03 1.163116e-03 1.229021e-03 1.296727e-03 1.365698e-03 1.435229e-03 1.504414e-03 1.572112e-03 1.636911e-03 1.697105e-03 1.750662e-03 1.795208e-03 1.828030e-03 1.846098e-03 1.846109e-03 1.824582e-03 1.777981e-03 1.702886e-03 1.596208e-03 1.455434e-03 1.278888e-03 1.065990e-03 8.174733e-04 5.355431e-04 2.239334e-04 -1.121460e-04 -4.661857e-04 -8.306665e-04 -1.197438e-03 -1.558150e-03 -1.904694e-03 -2.229609e-03 -2.526432e-03 -2.789938e-03 -3.016298e-03 -3.203123e-03 -3.349429e-03 -3.455515e-03 -3.522806e-03 -3.553647e-03 -3.551091e-03 -3.518685e-03 -3.460263e-03 -3.379774e-03 -3.281122e-03 -3.168048e-03 -3.044035e-03 -2.912247e-03 -2.775494e-03 -2.636212e-03 -2.496470e-03 -2.357986e-03 -2.222148e-03 -2.090051e-03 -1.962525e-03 -1.840176e-03 -1.723414e-03 -1.612488e-03 -1.507515e-03
1.027999e-03 1.093662e-03 1.162824e-03 1.235377e-03 1.311110e-03 1.389685e-03 1.470603e-03 1.553167e-03 1.636439e-03 1.719192e-03 1.799861e-03 1.876492e-03 1.946691e-03 2.007592e-03 2.055831e-03 2.087556e-03 2.098475e-03 2.083948e-03 2.039155e-03 1.959322e-03 1.840028e-03 1.677563e-03 1.469334e-03 1.214262e-03 9.131374e-04 5.688677e-04 1.865783e-04 -2.264809e-04 -6.612276e-04 -1.107221e-03 -1.553273e-03 -1.988120e-03 -2.401088e-03 -2.782676e-03 -3.124997e-03 -3.422065e-03 -3.669913e-03 -3.866558e-03 -4.011859e-03 -4.107282e-03 -4.155619e-03 -4.160688e-03 -4.127025e-03 -4.059609e-03 -3.963599e-03 -3.844129e-03 -3.706125e-03 -3.554179e-03 -3.392458e-03 -3.224646e-03 -3.053929e-03 -2.882989e-03 -2.714033e-03 -2.548826e-03 -2.388735e-03 -2.234777e-03 -2.087670e-03 -1.947877e-03 -1.815651e-03 -1.691080e-03 -1.574115e-03
1.074645e-03 1.147827e-03 1.225519e-03 1.307716e-03 1.394312e-03 1.485065e-03 1.579557e-03 1.677149e-03 1.776921e-03 1.877604e-03 1.977509e-03 2.074445e-03 2.165638e-03 2.247657e-03 2.316357e-03 2.366850e-03 2.393537e-03 2.390199e-03 2.350203e-03 2.266798e-03 2.133559e-03 1.944920e-03 1.696810e-03 1.387297e-03 1.017170e-03 5.903721e-04 1.141593e-04 -4.010537e-04 -9.422000e-04 -1.494374e-03 -2.041854e-03 -2.569200e-03 -3.062278e-03 -3.509082e-03 -3.900289e-03 -4.229511e-03 -4.493277e-03 -4.690813e-03 -4.823674e-03 -4.895314e-03 -4.910636e-03 -4.875553e-03 -4.796592e-03 -4.680549e-03 -4.534190e-03 -4.364019e-03 -4.176094e-03 -3.975907e-03 -3.768299e-03 -3.557436e-03 -3.346805e-03 -3.139247e-03 -2.937006e-03 -2.741792e-03 -2.554846e-03 -2.377011e-03 -2.208798e-03 -2.050448e-03 -1.901984e-03 -1.763266e-03 -1.634024e-03
1.118247e-03 1.199308e-03 1.286056e-03 1.378635e-03 1.477089e-03 1.581332e-03 1.691096e-03 1.805872e-03 1.924835e-03 2.046753e-03 2.169883e-03 2.291851e-03 2.409516e-03 2.518841e-03 2.614770e-03 2.691133e-03 2.740625e-03 2.754873e-03 2.724656e-03 2.640298e-03 2.492287e-03 2.272096e-03 1.973186e-03 1.592092e-03 1.129436e-03 5.906824e-04 -1.354238e-05 -6.677289e-04 -1.352391e-03 -2.045526e-03 -2.724416e-03 -3.367493e-03 -3.955961e-03 -4.474967e-03 -4.914191e-03 -5.267891e-03 -5.534507e-03 -5.715998e-03 -5.817077e-03 -5.844445e-03 -5.806118e-03 -5.710859e-03 -5.567709e-03 -5.385619e-03 -5.173155e-03 -4.938278e-03 -4.688184e-03 -4.429206e-03 -4.166768e-03 -3.905386e-03 -3.648711e-03 -3.399590e-03 -3.160152e-03 -2.931904e-03 -2.715825e-03 -2.512457e-03 -2.321992e-03 -2.144350e-03 -1.979240e-03 -1.826221e-03 -1.684745e-03
1.157312e-03 1.246460e-03 1.342643e-03 1.446200e-03 1.557393e-03 1.676366e-03 1.803091e-03 1.937294e-03 2.078365e-03 2.225239e-03 2.376252e-03 2.528966e-03 2.679963e-03 2.824627e-03 2.956904e-03 3.069099e-03 3.151726e-03 3.193491e-03 3.181476e-03 3.101621e-03 2.939564e-03 2.681904e-03 2.317826e-03 1.840978e-03 1.251300e-03 5.564781e-04 -2.274084e-04 -1.076340e-03 -1.960039e-03 -2.844711e-03 -3.696387e-03 -4.484250e-03 -5.183315e-03 -5.776040e-03 -6.252716e-03 -6.610808e-03 -6.853625e-03 -6.988711e-03 -7.026337e-03 -6.978263e-03 -6.856833e-03 -6.674372e-03 -6.442777e-03 -6.173251e-03 -5.876100e-03 -5.560599e-03 -5.234884e-03 -4.905914e-03 -4.579462e-03 -4.260167e-03 -3.951607e-03 -3.656416e-03 -3.376404e-03 -3.112683e-03 -2.865798e-03 -2.635842e-03 -2.422559e-03 -2.225435e-03 -2.043775e-03 -1.876763e-03 -1.723510e-03
1.190086e-03 1.287312e-03 1.393081e-03 1.507985e-03 1.632579e-03 1.767331e-03 1.912570e-03 2.068404e-03 2.234611e-03 2.410492e-03 2.594689e-03 2.784935e-03 2.977758e-03 3.168126e-03 3.349039e-03 3.511111e-03 3.642191e-03 3.727111e-03 3.747722e-03 3.683351e-03 3.511909e-03 3.211756e-03 2.764385e-03 2.157728e-03 1.389631e-03 4.707915e-04 -5.737423e-04 -1.705236e-03 -2.874455e-03 -4.027027e-03 -5.109994e-03 -6.078093e-03 -6.898386e-03 -7.552340e-03 -8.035262e-03 -8.353696e-03 -8.521840e-03 -8.557998e-03 -8.481778e-03 -8.312299e-03 -8.067299e-03 -7.762856e-03 -7.413412e-03 -7.031875e-03 -6.629696e-03 -6.216890e-03 -5.802034e-03 -5.392267e-03 -4.993321e-03 -4.609605e-03 -4.244318e-03 -3.899594e-03 -3.576671e-03 -3.276046e-03 -2.997639e-03 -2.740927e-03 -2.505069e-03 -2.289006e-03 -2.091546e-03 -1.911426e-03 -1.747360e-03
1.214553e-03 1.319557e-03 1.434740e-03 1.561015e-03 1.699311e-03 1.850535e-03 2.015520e-03 2.194941e-03 2.389204e-03 2.598275e-03 2.821452e-03 3.057050e-03 3.301987e-03 3.551247e-03 3.797220e-03 4.028941e-03 4.231276e-03 4.384187e-03 4.462301e-03 4.435082e-03 4.268038e-03 3.925358e-03 3.374251e-03 2.590886e-03 1.567201e-03 3.171737e-04 -1.119417e-03 -2.677623e-03 -4.273392e-03 -5.814520e-03 -7.214173e-03 -8.403522e-03 -9.340183e-03 -1.001049e-02 -1.042582e-02 -1.061484e-02 -1.061473e-02 -1.046365e-02 -1.019596e-02 -9.840245e-03 -9.419400e-03 -8.951733e-03 -8.452262e-03 -7.933718e-03 -7.407129e-03 -6.882045e-03 -6.366584e-03 -5.867390e-03 -5.389637e-03 -4.937084e-03 -4.512192e-03 -4.116297e-03 -3.749796e-03 -3.412349e-03 -3.103055e-03 -2.820618e-03 -2.563483e-03 -2.329944e-03 -2.118230e-03 -1.926573e-03 -1.753244e-03
1.228465e-03 1.340566e-03 1.464561e-03 1.601745e-03 1.753510e-03 1.921326e-03 2.106698e-03 2.311103e-03 2.535882e-03 2.782070e-03 3.050148e-03 3.339668e-03 3.648718e-03 3.973185e-03 4.305750e-03 4.634613e-03 4.941949e-03 5.202233e-03 5.380722e-03 5.432625e-03 5.303778e-03 4.933844e-03 4.263003e-03 3.242535e-03 1.848432e-03 9.535968e-05 -1.953451e-03 -4.185305e-03 -6.449469e-03 -8.580286e-03 -1.042664e-02 -1.187911e-02 -1.288637e-02 -1.345629e-02 -1.364306e-02 -1.352635e-02 -1.319019e-02 -1.270783e-02 -1.213458e-02 -1.150782e-02 -1.085099e-02 -1.017875e-02 -9.501228e-03 -8.826689e-03 -8.162736e-03 -7.516523e-03 -6.894506e-03 -6.302103e-03 -5.743444e-03 -5.221290e-03 -4.737084e-03 -4.291122e-03 -3.882753e-03 -3.510612e-03 -3.172829e-03 -2.867208e-03 -2.591379e-03 -2.342916e-03 -2.119416e-03 -1.918564e-03 -1.738172e-03
1.229394e-03 1.347445e-03 1.479099e-03 1.626086e-03 1.790345e-03 1.974028e-03 2.179494e-03 2.409280e-03 2.666031e-03 2.952373e-03 3.270683e-03 3.622711e-03 4.008981e-03 4.427864e-03 4.874207e-03 5.337385e-03 5.798659e-03 6.227866e-03 6.579683e-03 6.790211e-03 6.775285e-03 6.432759e-03 5.651524e-03 4.329565e-03 2.401106e-03 -1.315616e-04 -3.171333e-03 -6.517768e-03 -9.887443e-03 -1.296418e-02 -1.546662e-02 -1.721052e-02 -1.814319e-02 -1.833858e-02 -1.795826e-02 -1.719647e-02 -1.623063e-02 -1.519197e-02 -1.415878e-02 -1.316599e-02 -1.222134e-02 -1.132035e-02 -1.045634e-02 -9.625302e-03 -8.826927e-03 -8.063762e-03 -7.339701e-03 -6.658664e-03 -6.023716e-03 -5.436644e-03 -4.897880e-03 -4.406643e-03 -3.961178e-03 -3.559025e-03 -3.197274e-03 -2.872775e-03 -2.582302e-03 -2.322678e-03 -2.090857e-03 -1.883977e-03 -1.699391e-03
1.214825e-03 1.337132e-03 1.474626e-03 1.629507e-03 1.804316e-03 2.001987e-03 2.225896e-03 2.479894e-03 2.768327e-03 3.096006e-03 3.468090e-03 3.889820e-03 4.365988e-03 4.899991e-03 5.492210e-03 6.137407e-03 6.820725e-03 7.511926e-03 8.157714e-03 8.672712e-03 8.931047e-03 8.762680e-03 7.961218e-03 6.311250e-03 3.640514e-03 -1.074198e-04 -4.800182e-03 -1.007819e-02 -1.538556e-02 -2.008131e-02 -2.360202e-02 -2.561422e-02 -2.609293e-02 -2.529516e-02 -2.364660e-02 -2.159696e-02 -1.950456e-02 -1.758438e-02 -1.591721e-02 -1.449324e-02 -1.326078e-02 -1.216216e-02 -1.115232e-02 -1.020378e-02 -9.304013e-03 -8.450390e-03 -7.645237e-03 -6.892356e-03 -6.194963e-03 -5.554771e-03 -4.971791e-03 -4.444527e-03 -3.970322e-03 -3.545741e-03 -3.166902e-03 -2.829743e-03 -2.530225e-03 -2.264457e-03 -2.028791e-03 -1.819860e-03 -1.634603e-03
1.182292e-03 1.306552e-03 1.447311e-03 1.607227e-03 1.789459e-03 1.997770e-03 2.236653e-03 2.511469e-03 2.828610e-03 3.195654e-03 3.621496e-03 4.116385e-03 4.691754e-03 5.359622e-03 6.131213e-03 7.014190e-03 8.007603e-03 9.093332e-03 1.022265e-02 1.129705e-02 1.214437e-02 1.249611e-02 1.197909e-02 1.014411e-02 6.556175e-03 9.557029e-04 -6.543601e-03 -1.531000e-02 -2.421595e-02 -3.188606e-02 -3.710621e-02 -3.921900e-02 -3.831779e-02 -3.515051e-02 -3.079308e-02 -2.626366e-02 -2.225394e-02 -1.905792e-02 -1.665946e-02 -1.488090e-02 -1.351025e-02 -1.237322e-02 -1.135589e-02 -1.039831e-02 -9.477725e-03 -8.592213e-03 -7.748711e-03 -6.955912e-03 -6.220766e-03 -5.547285e-03 -4.936551e-03 -4.387264e-03 -3.896428e-03 -3.459978e-03 -3.073296e-03 -2.731581e-03 -2.430110e-03 -2.164399e-03 -1.930295e-03 -1.724021e-03 -1.542185e-03
1.129555e-03 1.252839e-03 1.393479e-03 1.554534e-03 1.739720e-03 1.953587e-03 2.201732e-03 2.491082e-03 2.830253e-03 3.229991e-03 3.703715e-03 4.268135e-03 4.943876e-03 5.755928e-03 6.733524e-03 7.908652e-03 9.311720e-03 1.096184e-02 1.284780e-02 1.489476e-02 1.691204e-02 1.852411e-02 1.910298e-02 1.775106e-02 1.341681e-02 5.222414e-03 -7.013200e-03 -2.227004e-02 -3.821385e-02 -5.174197e-02 -6.005547e-02 -6.173538e-02 -5.725562e-02 -4.867243e-02 -3.867786e-02 -2.954862e-02 -2.252651e-02 -1.781220e-02 -1.495615e-02 -1.330339e-02 -1.228257e-02 -1.151171e-02 -1.078747e-02 -1.003059e-02 -9.231145e-03 -8.409432e-03 -7.593314e-03 -6.807426e-03 -6.069439e-03 -5.389888e-03 -4.773425e-03 -4.220423e-03 -3.728430e-03 -3.293321e-03 -2.910122e-03 -2.573580e-03 -2.278514e-03 -2.020035e-03 -1.793649e-03 -1.595308e-03 -1.421413e-03
1.054817e-03 1.173608e-03 1.309965e-03 1.467220e-03 1.649500e-03 1.861968e-03 2.111147e-03 2.405348e-03 2.755272e-03 3.174816e-03 3.682185e-03 4.301374e-03 5.064125e-03 6.012371e-03 7.201024e-03 8.700509e-03 1.059744e-02 1.298985e-02 1.596975e-02 1.958001e-02 2.372625e-02 2.802250e-02 3.157010e-02 3.273823e-02 2.915046e-02 1.821285e-02 -1.591497e-03 -2.902731e-02 -5.925801e-02 -8.499912e-02 -9.944479e-02 -9.928334e-02 -8.609253e-02 -6.541205e-02 -4.399346e-02 -2.685152e-02 -1.586816e-02 -1.033638e-02 -8.407697e-03 -8.283838e-03 -8.735338e-03 -9.120051e-03 -9.202868e-03 -8.967504e-03 -8.486896e-03 -7.852677e-03 -7.144516e-03 -6.421141e-03 -5.721157e-03 -5.067222e-03 -4.470618e-03 -3.935096e-03 -3.459759e-03 -3.041061e-03 -2.674132e-03 -2.353614e-03 -2.074161e-03 -1.830718e-03 -1.618663e-03 -1.433855e-03 -1.272644e-03
9.569629e-04 1.067264e-03 1.194515e-03 1.342118e-03 1.514360e-03 1.716703e-03 1.956190e-03 2.242023e-03 2.586390e-03 3.005652e-03 3.522079e-03 4.166389e-03 4.981435e-03 6.027561e-03 7.390162e-03 9.189944e-03 1.159564e-02 1.483678e-02 1.920844e-02 2.504764e-02 3.263749e-02 4.196050e-02 5.219930e-02 6.095290e-02 6.347036e-02 5.289331e-02 2.297828e-02 -2.661186e-02 -8.613608e-02 -1.380067e-01 -1.652399e-01 -1.598304e-01 -1.263053e-01 -7.933967e-02 -3.593488e-02 -6.759994e-03 6.801023e-03 9.269870e-03 6.243401e-03 1.730279e-03 -2.236659e-03 -4.993190e-03 -6.564709e-03 -7.222472e-03 -7.264719e-03 -6.935316e-03 -6.408433e-03 -5.798263e-03 -5.174646e-03 -4.577232e-03 -4.026251e-03 -3.530016e-03 -3.089868e-03 -2.703320e-03 -2.365990e-03 -2.072754e-03 -1.818393e-03 -1.597957e-03 -1.406921e-03 -1.241260e-03 -1.097443e-03
8.357905e-04 9.333204e-04 1.046215e-03 1.177687e-03 1.331831e-03 1.513944e-03 1.730968e-03 1.992157e-03 2.310048e-03 2.701932e-03 3.192097e-03 3.815288e-03 4.622110e-03 5.687509e-03 7.124100e-03 9.102977e-03 1.188550e-02 1.586972e-02 2.165172e-02 3.008860e-02 4.230955e-02 5.952581e-02 8.231124e-02 1.088352e-01 1.317944e-01 1.356774e-01 9.999172e-02 1.444639e-02 -1.026815e-01 -2.080681e-01 -2.605667e-01 -2.422357e-01 -1.641661e-01 -6.362818e-02 1.657707e-02 5.594728e-02 6.087192e-02 4.822014e-02 3.140303e-02 1.698749e-02 6.764927e-03 3.442036e-04 -3.281602e-03 -5.068317e-03 -5.732835e-03 -5.756677e-03 -5.442695e-03 -4.972505e-03 -4.450400e-03 -3.933283e-03 -3.449887e-03 -3.012687e-03 -2.625088e-03 -2.285689e-03 -1.990751e-03 -1.735605e-03 -1.515415e-03 -1.325575e-03 -1.161892e-03 -1.020654e-03 -8.986255e-04
6.922057e-04 7.726657e-04 8.658748e-04 9.745489e-04 1.102180e-03 1.253324e-03 1.434033e-03 1.652485e-03 1.919960e-03 2.252348e-03 2.672535e-03 3.214247e-03 3.928349e-03 4.893318e-03 6.232896e-03 8.146123e-03 1.095858e-02 1.520934e-02 2.179509e-02 3.219612e-02 4.878704e-02 7.512180e-02 1.157125e-01 1.739152e-01 2.451894e-01 3.040370e-01 2.957598e-01 1.694175e-01 -4.456843e-02 -2.353275e-01 -3.197093e-01 -2.731843e-01 -1.113364e-01 8.031027e-02 1.940087e-01 2.057434e-01 1.616155e-01 1.072350e-01 6.332924e-02 3.365343e-02 1.551051e-02 5.169111e-03 -3.557941e-04 -3.067706e-03 -4.203401e-03 -4.491362e-03 -4.347768e-03 -4.004560e-03 -3.587579e-03 -3.162578e-03 -2.761788e-03 -2.399078e-03 -2.078520e-03 -1.799191e-03 -1.557831e-03 -1.350284e-03 -1.172251e-03 -1.019669e-03 -8.888717e-04 -7.766409e-04 -6.801978e-04
5.283394e-04 5.877397e-04 6.562813e-04 7.358767e-04 8.289875e-04 9.388365e-04 1.069726e-03 1.227524e-03 1.420417e-03 1.660125e-03 1.963868e-03 2.357659e-03 2.881903e-03 3.601151e-03 4.621408e-03 6.121445e-03 8.410349e-03 1.203463e-02 1.797859e-02 2.803679e-02 4.548570e-02 7.620283e-02 1.301660e-01 2.220728e-01 3.657160e-01 5.478755e-01 6.702190e-01 5.549064e-01 2.487634e-01 7.499663e-02 6.498011e-02 1.556761e-01 4.178578e-01 6.773168e-01 6.582003e-01 4.694049e-01 2.860464e-01 1.598317e-01 8.399605e-02 4.147780e-02 1.863837e-02 6.785001e-03 8.736439e-04 -1.891021e-03 -3.021783e-03 -3.326586e-03 -3.232761e-03 -2.963742e-03 -2.634160e-03 -2.300802e-03 -1.989915e-03 -1.711853e-03 -1.468912e-03 -1.259526e-03 -1.080467e-03 -9.279945e-04 -7.984120e-04 -6.883289e-04 -5.947533e-04 -5.151053e-04 -4.471909e-04
3.475571e-04 3.825614e-04 4.222638e-04 4.675102e-04 5.193656e-04 5.792003e-04 6.488207e-04 7.306786e-04 8.282096e-04 9.463995e-04 1.092752e-03 1.278986e-03 1.524073e-03 1.859815e-03 2.341291e-03 3.066876e-03 4.217386e-03 6.134204e-03 9.477846e-03 1.555391e-02 2.698541e-02 4.908058e-02 9.248137e-02 1.776409e-01 3.395452e-01 6.194738e-01 9.817927e-01 1.034662e+00 8.783830e-01 1.724066e+00 2.289621e+00 2.348376e+00 2.594649e+00 2.458437e+00 1.363665e+00 6.335856e-01 2.945633e-01 1.380953e-01 6.384005e-02 2.821286e-02 1.118010e-02 3.180340e-03 -4.243650e-04 -1.901666e-03 -2.365676e-03 -2.364680e-03 -2.167415e-03 -1.903699e-03 -1.634143e-03 -1.385001e-03 -1.165698e-03 -9.776742e-04 -8.188336e-04 -6.857483e-04 -5.747210e-04 -4.822646e-04 -4.052908e-04 -3.411551e-04 -2.876371e-04 -2.428932e-04 -2.054031e-04
1.543380e-04 1.625817e-04 1.705110e-04 1.777331e-04 1.836795e-04 1.875340e-04 1.881303e-04 1.838055e-04 1.721929e-04 1.499262e-04 1.122216e-04 5.229107e-05 -3.946034e-05 -1.764915e-04 -3.773957e-04 -6.671100e-04 -1.077131e-03 -1.642088e-03 -2.385709e-03 -3.278516e-03 -4.124048e-03 -4.272033e-03 -1.936896e-03 7.290631e-03 3.323204e-02 9.488347e-02 2.180233e-01 2.453273e-01 1.774534e-01 1.470501e+00 1.791234e+00 1.754420e+00 1.940363e+00 1.429012e+00 3.705063e-01 1.014975e-01 2.763472e-02 3.660966e-03 -4.063703e-03 -5.860638e-03 -5.548487e-03 -4.617859e-03 -3.631018e-03 -2.774175e-03 -2.086447e-03 -1.554524e-03 -1.150615e-03 -8.466458e-04 -6.187707e-04 -4.481306e-04 -3.203149e-04 -2.244990e-04 -1.526176e-04 -9.867804e-05 -5.822725e-05 -2.794925e-05 -5.367183e-06 1.137593e-05 2.367790e-05 3.259526e-05 3.892975e-05
-4.597318e-05 -6.564221e-05 -9.085900e-05 -1.233030e-04 -1.652347e-04 -2.197283e-04 -2.910108e-04 -3.849648e-04 -5.098858e-04 -6.776392e-04 -9.054637e-04 -1.218832e-03 -1.656085e-03 -2.276095e-03 -3.171239e-03 -4.489873e-03 -6.476209e-03 -9.542769e-03 -1.440494e-02 -2.233534e-02 -3.564881e-02 -5.861915e-02 -9.913177e-02 -1.712625e-01 -2.975443e-01 -5.026344e-01 -7.579855e-01 -7.676263e-01 -9.925949e-01 -2.442936e+00 -3.150544e+00 -3.272396e+00 -3.489968e+00 -2.801941e+00 -1.301804e+00 -5.724141e-01 -2.745531e-01 -1.404563e-01 -7.457821e-02 -4.049541e-02 -2.227672e-02 -1.229973e-02 -6.728909e-03 -3.570445e-03 -1.760881e-03 -7.198016e-04 -1.235977e-04 2.117501e-04 3.927750e-04 4.821335e-04 5.171736e-04 5.203960e-04 5.054582e-04 4.806806e-04 4.511258e-04 4.198503e-04 3.886676e-04 3.586181e-04 3.302618e-04 3.038619e-04 2.795002e-04
-2.475202e-04 -2.949160e-04 -3.529302e-04 -4.244406e-04 -5.132641e-04 -6.245215e-04 -7.651685e-04 -9.447793e-04 -1.176723e-03 -1.479960e-03 -1.881833e-03 -2.422482e-03 -3.161978e-03 -4.192052e-03 -5.655794e-03 -7.781366e-03 -1.094072e-02 -1.575329e-02 -2.327065e-02 -3.530337e-02 -5.498295e-02 -8.764822e-02 -1.419284e-01 -2.298484e-01 -3.613420e-01 -5.213864e-01 -6.218194e-01 -5.221816e-01 -3.363549e-01 -3.560012e-01 -4.777021e-01 -6.202831e-01 -8.547591e-01 -9.715685e-01 -7.842695e-01 -5.126342e-01 -3.061742e-01 -1.755918e-01 -9.846816e-02 -5.432340e-02 -2.942575e-02 -1.547275e-02 -7.679038e-03 -3.345926e-03 -9.623167e-04 3.189752e-04 9.756114e-04 1.278912e-03 1.384120e-03 1.380565e-03 1.319789e-03 1.231473e-03 1.132552e-03 1.032502e-03 9.364147e-04 8.468215e-04 7.647673e-04 6.904532e-04 6.236180e-04 5.637650e-04 5.102949e-04
-4.443515e-04 -5.179610e-04 -6.067314e-04 -7.145282e-04 -8.464181e-04 -1.009115e-03 -1.211623e-03 -1.466170e-03 -1.789585e-03 -2.205374e-03 -2.746870e-03 -3.462109e-03 -4.421483e-03 -5.729930e-03 -7.546588e-03 -1.011677e-02 -1.382421e-02 -1.927585e-02 -2.743617e-02 -3.982723e-02 -5.878410e-02 -8.764144e-02 -1.303797e-01 -1.894397e-01 -2.592654e-01 -3.144082e-01 -3.036822e-01 -1.853839e-01 -1.031603e-04 1.466445e-01 1.921218e-01 1.254754e-01 -3.194013e-02 -1.937506e-01 -2.670992e-01 -2.480569e-01 -1.875276e-01 -1.256336e-01 -7.789312e-02 -4.559742e-02 -2.526348e-02 -1.300666e-02 -5.842534e-03 -1.771635e-03 4.613582e-04 1.618741e-03 2.155406e-03 2.340254e-03 2.331266e-03 2.220701e-03 2.061967e-03 1.885523e-03 1.708294e-03 1.539247e-03 1.382707e-03 1.240330e-03 1.112277e-03 9.979059e-04 8.961842e-04 8.059254e-04 7.259231e-04
-6.308440e-04 -7.279710e-04 -8.439753e-04 -9.834126e-04 -1.152177e-03 -1.357970e-03 -1.610960e-03 -1.924718e-03 -2.317577e-03 -2.814597e-03 -3.450471e-03 -4.273841e-03 -5.353765e-03 -6.789465e-03 -8.724985e-03 -1.137108e-02 -1.503703e-02 -2.017458e-02 -2.743148e-02 -3.769717e-02 -5.208182e-02 -7.167740e-02 -9.678280e-02 -1.251170e-01 -1.488584e-01 -1.522650e-01 -1.155178e-01 -3.028537e-02 8.296481e-02 1.809108e-01 2.251382e-01 2.009540e-01 1.217340e-01 2.539394e-02 -4.724138e-02 -7.905162e-02 -7.841680e-02 -6.218029e-02 -4.295277e-02 -2.666926e-02 -1.483420e-02 -6.979363e-03 -2.096053e-03 7.646257e-04 2.323746e-03 3.078163e-03 3.352185e-03 3.350453e-03 3.199004e-03 2.973848e-03 2.719785e-03 2.462416e-03 2.215684e-03 1.986549e-03 1.777859e-03 1.590111e-03 1.422513e-03 1.273624e-03 1.141726e-03 1.025049e-03 9.218790e-04
-8.020792e-04 -9.190963e-04 -1.057685e-03 -1.222754e-03 -1.420560e-03 -1.659140e-03 -1.948912e-03 -2.303490e-03 -2.740834e-03 -3.284842e-03 -3.967594e-03 -4.832492e-03 -5.938656e-03 -7.366971e-03 -9.228203e-03 -1.167328e-02 -1.490486e-02 -1.918661e-02 -2.484047e-02 -3.220920e-02 -4.153843e-02 -5.270027e-02 -6.466429e-02 -7.470558e-02 -7.768965e-02 -6.646647e-02 -3.483132e-02 1.701498e-02 7.845885e-02 1.312104e-01 1.581449e-01 1.516453e-01 1.169006e-01 6.919141e-02 2.572915e-02 -3.024161e-03 -1.597973e-02 -1.779171e-02 -1.405178e-02 -8.745939e-03 -3.923463e-03 -2.951016e-04 2.114153e-03 3.538050e-03 4.254538e-03 4.501688e-03 4.457544e-03 4.245463e-03 3.946580e-03 3.612037e-03 3.272713e-03 2.946264e-03 2.641960e-03 2.363894e-03 2.113069e-03 1.888720e-03 1.689139e-03 1.512189e-03 1.355598e-03 1.217139e-03 1.094720e-03
-9.541292e-04 -1.086796e-03 -1.242627e-03 -1.426555e-03 -1.644757e-03 -1.905018e-03 -2.217204e-03 -2.593895e-03 -3.051219e-03 -3.609945e-03 -4.296920e-03 -5.146891e-03 -6.204776e-03 -7.528273e-03 -9.190493e-03 -1.128167e-02 -1.390781e-02 -1.718195e-02 -2.119980e-02 -2.598579e-02 -3.139010e-02 -3.691740e-02 -4.149313e-02 -4.324855e-02 -3.954663e-02 -2.759717e-02 -5.870953e-03 2.413534e-02 5.707579e-02 8.507428e-02 1.008697e-01 1.009827e-01 8.713648e-02 6.522839e-02 4.240916e-02 2.399646e-02 1.204023e-02 5.895247e-03 3.705112e-03 3.618925e-03 4.330550e-03 5.116492e-03 5.670265e-03 5.921475e-03 5.907116e-03 5.698242e-03 5.365226e-03 4.964927e-03 4.538463e-03 4.113252e-03 3.706206e-03 3.326761e-03 2.979319e-03 2.665051e-03 2.383161e-03 2.131741e-03 1.908328e-03 1.710252e-03 1.534853e-03 1.379599e-03 1.242151e-03
-1.084225e-03 -1.228025e-03 -1.395512e-03 -1.591358e-03 -1.821300e-03 -2.092405e-03 -2.413406e-03 -2.795114e-03 -3.250928e-03 -3.797441e-03 -4.455128e-03 -5.249061e-03 -6.209525e-03 -7.372229e-03 -8.777553e-03 -1.046778e-02 -1.248045e-02 -1.483495e-02 -1.750800e-02 -2.039279e-02 -2.323839e-02 -2.557312e-02 -2.663538e-02 -2.536762e-02 -2.056305e-02 -1.124593e-02 2.743638e-03 2.020328e-02 3.846687e-02 5.402856e-02 6.373359e-02 6.596248e-02 6.119475e-02 5.167343e-02 4.037582e-02 2.986600e-02 2.160677e-02 1.592781e-02 1.242377e-02 1.042232e-02 9.299571e-03 8.608122e-03 8.081644e-03 7.588495e-03 7.079608e-03 6.548670e-03 6.007146e-03 5.470834e-03 4.953740e-03 4.466014e-03 4.013840e-03 3.600109e-03 3.225280e-03 2.888166e-03 2.586570e-03 2.317744e-03 2.078717e-03 1.866500e-03 1.678226e-03 1.511217e-03 1.363023e-03
-1.190803e-03 -1.341263e-03 -1.514978e-03 -1.716150e-03 -1.949819e-03 -2.222034e-03 -2.540051e-03 -2.912549e-03 -3.349853e-03 -3.864146e-03 -4.469601e-03 -5.182334e-03 -6.020004e-03 -7.000750e-03 -8.140968e-03 -9.451187e-03 -1.092895e-02 -1.254733e-02 -1.423775e-02 -1.586643e-02 -1.720676e-02 -1.791489e-02 -1.752492e-02 -1.548924e-02 -1.129094e-02 -4.635430e-03 4.320939e-03 1.480945e-02 2.548253e-02 3.470543e-02 4.103017e-02 4.365324e-02 4.264499e-02 3.884908e-02 3.351677e-02 2.786624e-02 2.276524e-02 1.863115e-02 1.551185e-02 1.324323e-02 1.159245e-02 1.034630e-02 9.346673e-03 8.492395e-03 7.726553e-03 7.021236e-03 6.365065e-03 5.754738e-03 5.190031e-03 4.671223e-03 4.197986e-03 3.769088e-03 3.382471e-03 3.035467e-03 2.725044e-03 2.448012e-03 2.201179e-03 1.981469e-03 1.785986e-03 1.612058e-03 1.457253e-03
-1.273446e-03 -1.426393e-03 -1.601389e-03 -1.802029e-03 -2.032513e-03 -2.297732e-03 -2.603348e-03 -2.955851e-03 -3.362583e-03 -3.831666e-03 -4.371799e-03 -4.991792e-03 -5.699702e-03 -6.501342e-03 -7.397835e-03 -8.381833e-03 -9.431926e-03 -1.050491e-02 -1.152590e-02 -1.237738e-02 -1.288974e-02 -1.283883e-02 -1.195858e-02 -9.977870e-03 -6.687039e-03 -2.027363e-03 3.821660e-03 1.039891e-02 1.700259e-02 2.282735e-02 2.716281e-02 2.958020e-02 3.003170e-02 2.882438e-02 2.648807e-02 2.360107e-02 2.064505e-02 1.793202e-02 1.560415e-02 1.367838e-02 1.210266e-02 1.080146e-02 9.703273e-03 8.752238e-03 7.909738e-03 7.151304e-03 6.462318e-03 5.834201e-03 5.261659e-03 4.740927e-03 4.268802e-03 3.842175e-03 3.457861e-03 3.112596e-03 2.803084e-03 2.526082e-03 2.278459e-03 2.057254e-03 1.859710e-03 1.683289e-03 1.525681e-03
-1.332736e-03 -1.484491e-03 -1.656516e-03 -1.851739e-03 -2.073478e-03 -2.325457e-03 -2.611799e-03 -2.936979e-03 -3.305713e-03 -3.722740e-03 -4.192444e-03 -4.718244e-03 -5.301636e-03 -5.940763e-03 -6.628354e-03 -7.348887e-03 -8.074887e-03 -8.762474e-03 -9.346599e-03 -9.737095e-03 -9.817448e-03 -9.449198e-03 -8.485310e-03 -6.795040e-03 -4.299756e-03 -1.013578e-03 2.923749e-03 7.238104e-03 1.154920e-02 1.543653e-02 1.852697e-02 2.057598e-02 2.151367e-02 2.144108e-02 2.058177e-02 1.921096e-02 1.758885e-02 1.591729e-02 1.432517e-02 1.287614e-02 1.158744e-02 1.044983e-02 9.443144e-03 8.545823e-03 7.739417e-03 7.009844e-03 6.346965e-03 5.743564e-03 5.194324e-03 4.695028e-03 4.242035e-03 3.831968e-03 3.461579e-03 3.127695e-03 2.827222e-03 2.557177e-03 2.314715e-03 2.097154e-03 1.902000e-03 1.726950e-03 1.569900e-03
-1.370062e-03 -1.517554e-03 -1.683167e-03 -1.869164e-03 -2.078016e-03 -2.312365e-03 -2.574967e-03 -2.868581e-03 -3.195791e-03 -3.558729e-03 -3.958661e-03 -4.395377e-03 -4.866352e-03 -5.365585e-03 -5.882099e-03 -6.398070e-03 -6.886670e-03 -7.309858e-03 -7.616572e-03 -7.742105e-03 -7.609787e-03 -7.136273e-03 -6.241590e-03 -4.864185e-03 -2.979531e-03 -6.184702e-04 2.120645e-03 5.072410e-03 8.021502e-03 1.073538e-02 1.300520e-02 1.468347e-02 1.570692e-02 1.609862e-02 1.595027e-02 1.539265e-02 1.456465e-02 1.358929e-02 1.256082e-02 1.154228e-02 1.056990e-02 9.660566e-03 8.819135e-03 8.044161e-03 7.331602e-03 6.676846e-03 6.075590e-03 5.524068e-03 5.018985e-03 4.557360e-03 4.136389e-03 3.753351e-03 3.405567e-03 3.090396e-03 2.805246e-03 2.547600e-03 2.315043e-03 2.105285e-03 1.916175e-03 1.745714e-03 1.592057e-03
-1.387400e-03 -1.528213e-03 -1.684809e-03 -1.858837e-03 -2.052004e-03 -2.266016e-03 -2.502491e-03 -2.762820e-03 -3.047973e-03 -3.358220e-03 -3.692748e-03 -4.049149e-03 -4.422757e-03 -4.805813e-03 -5.186475e-03 -5.547712e-03 -5.866202e-03 -6.111454e-03 -6.245466e-03 -6.223423e-03 -5.995954e-03 -5.513486e-03 -4.732940e-03 -3.626440e-03 -2.190883e-03 -4.562264e-04 1.510215e-03 3.606030e-03 5.703767e-03 7.667771e-03 9.374374e-03 1.073046e-02 1.168560e-02 1.223497e-02 1.241307e-02 1.228128e-02 1.191314e-02 1.138152e-02 1.074974e-02 1.006748e-02 9.370415e-03 8.682144e-03 8.017144e-03 7.383583e-03 6.785612e-03 6.224972e-03 5.702007e-03 5.216253e-03 4.766753e-03 4.352219e-03 3.971126e-03 3.621772e-03 3.302325e-03 3.010873e-03 2.745464e-03 2.504150e-03 2.285016e-03 2.086214e-03 1.905980e-03 1.742649e-03 1.594664e-03
-1.387105e-03 -1.519464e-03 -1.665236e-03 -1.825526e-03 -2.001394e-03 -2.193780e-03 -2.403407e-03 -2.630642e-03 -2.875311e-03 -3.136456e-03 -3.412014e-03 -3.698426e-03 -3.990159e-03 -4.279153e-03 -4.554227e-03 -4.800499e-03 -4.998926e-03 -5.126116e-03 -5.154629e-03 -5.054013e-03 -4.792810e-03 -4.341706e-03 -3.677768e-03 -2.789404e-03 -1.681286e-03 -3.781170e-04 1.074032e-03 2.609829e-03 4.150579e-03 5.613259e-03 6.921012e-03 8.012857e-03 8.850455e-03 9.420578e-03 9.733158e-03 9.815943e-03 9.707487e-03 9.450235e-03 9.085034e-03 8.647623e-03 8.167068e-03 7.665668e-03 7.159741e-03 6.660776e-03 6.176601e-03 5.712371e-03 5.271343e-03 4.855419e-03 4.465533e-03 4.101912e-03 3.764265e-03 3.451913e-03 3.163896e-03 2.899053e-03 2.656092e-03 2.433639e-03 2.230291e-03 2.044644e-03 1.875322e-03 1.721002e-03 1.580420e-03
-1.371715e-03 -1.494441e-03 -1.628289e-03 -1.773911e-03 -1.931844e-03 -2.102432e-03 -2.285733e-03 -2.481396e-03 -2.688498e-03 -2.905346e-03 -3.129235e-03 -3.356169e-03 -3.580535e-03 -3.794772e-03 -3.989053e-03 -4.151023e-03 -4.265699e-03 -4.315603e-03 -4.281263e-03 -4.142196e-03 -3.878463e-03 -3.472822e-03 -2.913340e-03 -2.196215e-03 -1.328327e-03 -3.289413e-04 7.700315e-04 1.925627e-03 3.087350e-03 4.202209e-03 5.220456e-03 6.100933e-03 6.815006e-03 7.348424e-03 7.700921e-03 7.883960e-03 7.917339e-03 7.825487e-03 7.634152e-03 7.367903e-03 7.048566e-03 6.694510e-03 6.320555e-03 5.938261e-03 5.556402e-03 5.181472e-03 4.818158e-03 4.469729e-03 4.138363e-03 3.825388e-03 3.531478e-03 3.256806e-03 3.001165e-03 2.764060e-03 2.544792e-03 2.342517e-03 2.156298e-03 1.985148e-03 1.828057e-03 1.684021e-03 1.552061e-03
-1.343799e-03 -1.456228e-03 -1.577650e-03 -1.708356e-03 -1.848477e-03 -1.997920e-03 -2.156280e-03 -2.322735e-03 -2.495922e-03 -2.673777e-03 -2.853372e-03 -3.030716e-03 -3.200563e-03 -3.356224e-03 -3.489425e-03 -3.590237e-03 -3.647143e-03 -3.647295e-03 -3.577012e-03 -3.422598e-03 -3.171464e-03 -2.813556e-03 -2.342962e-03 -1.759513e-03 -1.070121e-03 -2.895298e-04 5.597831e-04 1.448741e-03 2.343809e-03 3.209926e-03 4.013772e-03 4.726854e-03 5.327890e-03 5.804124e-03 6.151464e-03 6.373569e-03 6.480193e-03 6.485194e-03 6.404566e-03 6.254773e-03 6.051516e-03 5.808956e-03 5.539329e-03 5.252853e-03 4.957829e-03 4.660835e-03 4.366969e-03 4.080085e-03 3.803012e-03 3.537745e-03 3.285610e-03 3.047395e-03 2.823468e-03 2.613868e-03 2.418381e-03 2.236610e-03 2.068020e-03 1.911985e-03 1.767822e-03 1.634815e-03 1.512239e-03
-1.305831e-03 -1.407729e-03 -1.516702e-03 -1.632765e-03 -1.755754e-03 -1.885271e-03 -2.020612e-03 -2.160681e-03 -2.303897e-03 -2.448082e-03 -2.590345e-03 -2.726960e-03 -2.853259e-03 -2.963541e-03 -3.051035e-03 -3.107928e-03 -3.125504e-03 -3.094410e-03 -3.005100e-03 -2.848448e-03 -2.616548e-03 -2.303641e-03 -1.907102e-03 -1.428358e-03 -8.735901e-04 -2.540459e-04 4.141558e-04 1.110812e-03 1.812977e-03 2.496722e-03 3.139082e-03 3.719902e-03 4.223330e-03 4.638733e-03 4.960977e-03 5.190095e-03 5.330487e-03 5.389840e-03 5.377964e-03 5.305722e-03 5.184132e-03 5.023714e-03 4.834065e-03 4.623632e-03 4.399634e-03 4.168087e-03 3.933896e-03 3.700968e-03 3.472349e-03 3.250344e-03 3.036644e-03 2.832428e-03 2.638456e-03 2.455154e-03 2.282680e-03 2.120985e-03 1.969860e-03 1.828980e-03 1.697933e-03 1.576253e-03 1.463436e-03
-1.260106e-03 -1.351578e-03 -1.448444e-03 -1.550517e-03 -1.657430e-03 -1.768589e-03 -1.883118e-03 -1.999792e-03 -2.116971e-03 -2.232523e-03 -2.343749e-03 -2.447316e-03 -2.539203e-03 -2.614673e-03 -2.668292e-03 -2.694000e-03 -2.685265e-03 -2.635330e-03 -2.537559e-03 -2.385900e-03 -2.175431e-03 -1.902964e-03 -1.567654e-03 -1.171526e-03 -7.198429e-04 -2.212175e-04 3.125861e-04 8.671986e-04 1.426505e-03 1.973738e-03 2.492678e-03 2.968802e-03 3.390233e-03 3.748387e-03 4.038249e-03 4.258293e-03 4.410095e-03 4.497756e-03 4.527209e-03 4.505535e-03 4.440351e-03 4.339302e-03 4.209688e-03 4.058224e-03 3.890888e-03 3.712872e-03 3.528579e-03 3.341663e-03 3.155098e-03 2.971248e-03 2.791946e-03 2.618574e-03 2.452129e-03 2.293290e-03 2.142475e-03 1.999892e-03 1.865581e-03 1.739451e-03 1.621313e-03 1.510902e-03 1.407904e-03
-1.208687e-03 -1.290093e-03 -1.375454e-03 -1.464443e-03 -1.556565e-03 -1.651114e-03 -1.747137e-03 -1.843382e-03 -1.938252e-03 -2.029756e-03 -2.115468e-03 -2.192491e-03 -2.257439e-03 -2.306447e-03 -2.335213e-03 -2.339083e-03 -2.313199e-03 -2.252701e-03 -2.152997e-03 -2.010096e-03 -1.820982e-03 -1.584007e-03 -1.299266e-03 -9.689004e-04 -5.972921e-04 -1.910813e-04 2.410049e-04 6.885324e-04 1.139925e-03 1.583167e-03 2.006559e-03 2.399460e-03 2.752909e-03 3.060073e-03 3.316489e-03 3.520076e-03 3.670967e-03 3.771188e-03 3.824254e-03 3.834735e-03 3.807839e-03 3.749043e-03 3.663799e-03 3.557313e-03 3.434389e-03 3.299345e-03 3.155966e-03 3.007505e-03 2.856698e-03 2.705805e-03 2.556650e-03 2.410678e-03 2.268997e-03 2.132432e-03 2.001566e-03 1.876782e-03 1.758298e-03 1.646199e-03 1.540467e-03 1.440998e-03 1.347630e-03
-1.153378e-03 -1.225259e-03 -1.299888e-03 -1.376850e-03 -1.455577e-03 -1.535320e-03 -1.615111e-03 -1.693738e-03 -1.769709e-03 -1.841226e-03 -1.906165e-03 -1.962056e-03 -2.006099e-03 -2.035179e-03 -2.045923e-03 -2.034785e-03 -1.998171e-03 -1.932599e-03 -1.834908e-03 -1.702491e-03 -1.533548e-03 -1.327349e-03 -1.084459e-03 -8.069173e-04 -4.983333e-04 -1.638670e-04 1.899099e-04 5.552816e-04 9.237688e-04 1.286588e-03 1.635149e-03 1.961538e-03 2.258937e-03 2.521939e-03 2.746738e-03 2.931181e-03 3.074699e-03 3.178135e-03 3.243502e-03 3.273714e-03 3.272302e-03 3.243153e-03 3.190288e-03 3.117681e-03 3.029115e-03 2.928095e-03 2.817785e-03 2.700984e-03 2.580116e-03 2.457243e-03 2.334086e-03 2.212058e-03 2.092289e-03 1.975665e-03 1.862860e-03 1.754363e-03 1.650513e-03 1.551520e-03 1.457488e-03 1.368439e-03 1.284327e-03
-1.095717e-03 -1.158732e-03 -1.223500e-03 -1.289562e-03 -1.356321e-03 -1.423024e-03 -1.488738e-03 -1.552329e-03 -1.612444e-03 -1.667499e-03 -1.715664e-03 -1.754872e-03 -1.782831e-03 -1.797056e-03 -1.794923e-03 -1.773744e-03 -1.730872e-03 -1.663826e-03 -1.570441e-03 -1.449040e-03 -1.298601e-03 -1.118930e-03 -9.108030e-04 -6.760652e-04 -4.176767e-04 -1.396811e-04 1.529059e-04 4.542868e-04 7.581431e-04 1.057944e-03 1.347281e-03 1.620189e-03 1.871436e-03 2.096746e-03 2.292946e-03 2.458022e-03 2.591104e-03 2.692373e-03 2.762917e-03 2.804562e-03 2.819682e-03 2.811017e-03 2.781508e-03 2.734155e-03 2.671898e-03 2.597538e-03 2.513667e-03 2.422638e-03 2.326541e-03 2.227202e-03 2.126186e-03 2.024813e-03 1.924177e-03 1.825167e-03 1.728488e-03 1.634688e-03 1.544176e-03 1.457242e-03 1.374079e-03 1.294797e-03 1.219440e-03
-1.036984e-03 -1.091856e-03 -1.147680e-03 -1.203980e-03 -1.260162e-03 -1.315500e-03 -1.369121e-03 -1.419994e-03 -1.466918e-03 -1.508518e-03 -1.543245e-03 -1.569385e-03 -1.585082e-03 -1.588367e-03 -1.577211e-03 -1.549586e-03 -1.503551e-03 -1.437345e-03 -1.349502e-03 -1.238967e-03 -1.105212e-03 -9.483509e-04 -7.692236e-04 -5.694552e-04 -3.514723e-04 -1.184687e-04 1.256806e-04 3.765574e-04 6.293819e-04 8.792253e-04 1.121237e-03 1.350868e-03 1.564068e-03 1.757447e-03 1.928389e-03 2.075104e-03 2.196630e-03 2.292791e-03 2.364112e-03 2.411707e-03 2.437155e-03 2.442377e-03 2.429511e-03 2.400805e-03 2.358524e-03 2.304879e-03 2.241967e-03 2.171733e-03 2.095946e-03 2.016186e-03 1.933840e-03 1.850105e-03 1.766001e-03 1.682379e-03 1.599941e-03 1.519249e-03 1.440749e-03 1.364777e-03 1.291584e-03 1.221341e-03 1.154154e-03
-9.782210e-04 -1.025699e-03 -1.073496e-03 -1.121141e-03 -1.168063e-03 -1.213581e-03 -1.256901e-03 -1.297099e-03 -1.333129e-03 -1.363812e-03 -1.387851e-03 -1.403840e-03 -1.410284e-03 -1.405634e-03 -1.388328e-03 -1.356842e-03 -1.309758e-03 -1.245837e-03 -1.164098e-03 -1.063903e-03 -9.450358e-04 -8.077757e-04 -6.529505e-04 -4.819689e-04 -2.968223e-04 -1.000533e-04 1.053118e-04 3.158630e-04 5.279360e-04 7.377611e-04 9.416207e-04 1.136005e-03 1.317754e-03 1.484171e-03 1.633108e-03 1.763014e-03 1.872947e-03 1.962552e-03 2.032013e-03 2.081981e-03 2.113494e-03 2.127889e-03 2.126713e-03 2.111642e-03 2.084410e-03 2.046749e-03 2.000337e-03 1.946766e-03 1.887511e-03 1.823917e-03 1.757191e-03 1.688395e-03 1.618454e-03 1.548160e-03 1.478182e-03 1.409073e-03 1.341286e-03 1.275181e-03 1.211039e-03 1.149070e-03 1.089424e-03
-9.202531e-04 -9.610815e-04 -1.001740e-03 -1.041777e-03 -1.080656e-03 -1.117756e-03 -1.152361e-03 -1.183662e-03 -1.210754e-03 -1.232641e-03 -1.248245e-03 -1.256418e-03 -1.255966e-03 -1.245675e-03 -1.224347e-03 -1.190843e-03 -1.144132e-03 -1.083350e-03 -1.007854e-03 -9.172843e-04 -8.116166e-04 -6.912110e-04 -5.568440e-04 -4.097255e-04 -2.514939e-04 -8.418798e-05 8.980508e-05 2.678238e-04 4.470252e-04 6.244914e-04 7.973404e-04 9.628375e-04 1.118495e-03 1.262158e-03 1.392066e-03 1.506897e-03 1.605776e-03 1.688273e-03 1.754371e-03 1.804425e-03 1.839102e-03 1.859325e-03 1.866208e-03 1.860998e-03 1.845014e-03 1.819606e-03 1.786109e-03 1.745813e-03 1.699936e-03 1.649612e-03 1.595872e-03 1.539645e-03 1.481755e-03 1.422922e-03 1.363765e-03 1.304812e-03 1.246504e-03 1.189205e-03 1.133208e-03 1.078746e-03 1.025996e-03
-8.637166e-04 -8.986149e-04 -9.329753e-04 -9.663728e-04 -9.983162e-04 -1.028245e-03 -1.055527e-03 -1.079457e-03 -1.099264e-03 -1.114112e-03 -1.123109e-03 -1.125327e-03 -1.119815e-03 -1.105626e-03 -1.081844e-03 -1.047621e-03 -1.002214e-03 -9.450276e-04 -8.756538e-04 -7.939163e-04 -6.999064e-04 -5.940135e-04 -4.769456e-04 -3.497364e-04 -2.137380e-04 -7.059639e-05 7.778828e-05 2.293174e-04 3.817618e-04 5.328378e-04 6.802885e-04 8.219622e-04 9.558859e-04 1.080328e-03 1.193846e-03 1.295319e-03 1.383963e-03 1.459329e-03 1.521289e-03 1.570005e-03 1.605894e-03 1.629589e-03 1.641886e-03 1.643708e-03 1.636059e-03 1.619984e-03 1.596541e-03 1.566768e-03 1.531666e-03 1.492178e-03 1.449181e-03 1.403474e-03 1.355781e-03 1.306745e-03 1.256929e-03 1.206823e-03 1.156845e-03 1.107351e-03 1.058632e-03 1.010931e-03 9.644375e-04
-8.090854e-04 -8.387332e-04 -8.675736e-04 -8.952155e-04 -9.212144e-04 -9.450718e-04 -9.662344e-04 -9.840963e-04 -9.980024e-04 -1.007256e-03 -1.011126e-03 -1.008863e-03 -9.997132e-04 -9.829405e-04 -9.578488e-04 -9.238097e-04 -8.802920e-04 -8.268924e-04 -7.633663e-04 -6.896569e-04 -6.059208e-04 -5.125472e-04 -4.101702e-04 -2.996706e-04 -1.821679e-04 -5.899985e-05 6.830867e-05 1.980876e-04 3.285716e-04 4.579564e-04 5.844570e-04 7.063659e-04 8.221064e-04 9.302795e-04 1.029700e-03 1.119424e-03 1.198759e-03 1.267271e-03 1.324773e-03 1.371307e-03 1.407121e-03 1.432640e-03 1.448433e-03 1.455180e-03 1.453641e-03 1.444626e-03 1.428968e-03 1.407501e-03 1.381040e-03 1.350366e-03 1.316217e-03 1.279277e-03 1.240172e-03 1.199471e-03 1.157677e-03 1.115237e-03 1.072541e-03 1.029923e-03 9.876684e-04 9.460157e-04 9.051621e-04
-7.566973e-04 -7.817253e-04 -8.057572e-04 -8.284377e-04 -8.493700e-04 -8.681150e-04 -8.841930e-04 -8.970861e-04 -9.062430e-04 -9.110854e-04 -9.110171e-04 -9.054354e-04 -8.937452e-04 -8.753762e-04 -8.498014e-04 -8.165584e-04 -7.752719e-04 -7.256767e-04 -6.676398e-04 -6.011810e-04 -5.264900e-04 -4.439390e-04 -3.540894e-04 -2.576913e-04 -1.556749e-04 -4.913399e-05 6.069841e-05 1.724819e-04 2.848063e-04 3.962327e-04 5.053375e-04 6.107543e-04 7.112142e-04 8.055805e-04 8.928770e-04 9.723087e-04 1.043273e-03 1.105365e-03 1.158372e-03 1.202262e-03 1.237171e-03 1.263378e-03 1.281285e-03 1.291393e-03 1.294275e-03 1.290557e-03 1.280893e-03 1.265951e-03 1.246392e-03 1.222862e-03 1.195975e-03 1.166314e-03 1.134416e-03 1.100777e-03 1.065844e-03 1.030018e-03 9.936559e-04 9.570679e-04 9.205241e-04 8.842553e-04 8.484565e-04
-7.067775e-04 -7.277631e-04 -7.476284e-04 -7.660545e-04 -7.826902e-04 -7.971522e-04 -8.090275e-04 -8.178764e-04 -8.232372e-04 -8.246324e-04 -8.215771e-04 -8.135886e-04 -8.001989e-04 -7.809678e-04 -7.554983e-04 -7.234531e-04 -6.845717e-04 -6.386869e-04 -5.857417e-04 -5.258030e-04 -4.590736e-04 -3.859000e-04 -3.067758e-04 -2.223393e-04 -1.333667e-04 -4.075737e-05 5.448460e-05 1.512751e-04 2.484783e-04 3.449374e-04 4.395075e-04 5.310870e-04 6.186476e-04 7.012609e-04 7.781198e-04 8.485550e-04 9.120454e-04 9.682218e-04 1.016866e-03 1.057904e-03 1.091395e-03 1.117517e-03 1.136552e-03 1.148864e-03 1.154887e-03 1.155102e-03 1.150024e-03 1.140185e-03 1.126120e-03 1.108359e-03 1.087415e-03 1.063778e-03 1.037908e-03 1.010234e-03 9.811479e-04 9.510077e-04 9.201338e-04 8.888113e-04 8.572914e-04 8.257925e-04 7.945029e-04
-6.594598e-04 -6.769258e-04 -6.931982e-04 -7.079933e-04 -7.210027e-04 -7.318942e-04 -7.403144e-04 -7.458917e-04 -7.482412e-04 -7.469704e-04 -7.416860e-04 -7.320030e-04 -7.175544e-04 -6.980018e-04 -6.730484e-04 -6.424508e-04 -6.060323e-04 -5.636956e-04 -5.154341e-04 -4.613423e-04 -4.016235e-04 -3.365947e-04 -2.666877e-04 -1.924466e-04 -1.145211e-04 -3.365494e-05 4.932893e-05 1.335474e-04 2.180786e-04 3.019855e-04 3.843405e-04 4.642490e-04 5.408723e-04 6.134479e-04 6.813062e-04 7.438832e-04 8.007294e-04 8.515140e-04 8.960248e-04 9.341642e-04 9.659420e-04 9.914658e-04 1.010929e-03 1.024597e-03 1.032795e-03 1.035893e-03 1.034296e-03 1.028426e-03 1.018716e-03 1.005601e-03 9.895054e-04 9.708407e-04 9.499988e-04 9.273480e-04 9.032308e-04 8.779622e-04 8.518287e-04 8.250885e-04 7.979720e-04 7.706828e-04 7.433992e-04
-6.148055e-04 -6.292210e-04 -6.424088e-04 -6.541186e-04 -6.640814e-04 -6.720109e-04 -6.776062e-04 -6.805546e-04 -6.805366e-04 -6.772303e-04 -6.703181e-04 -6.594937e-04 -6.444703e-04 -6.249895e-04 -6.008307e-04 -5.718212e-04 -5.378455e-04 -4.988552e-04 -4.548767e-04 -4.060190e-04 -3.524783e-04 -2.945411e-04 -2.325844e-04 -1.670724e-04 -9.855095e-05 -2.763841e-05 4.498674e-05 1.186002e-04 1.924487e-04 2.657678e-04 3.378005e-04 4.078156e-04 4.751249e-04 5.390987e-04 5.991793e-04 6.548905e-04 7.058456e-04 7.517508e-04 7.924061e-04 8.277031e-04 8.576202e-04 8.822158e-04 9.016198e-04 9.160238e-04 9.256711e-04 9.308462e-04 9.318646e-04 9.290634e-04 9.227919e-04 9.134046e-04 9.012535e-04 8.866830e-04 8.700249e-04 8.515946e-04 8.316890e-04 8.105839e-04 7.885334e-04 7.657690e-04 7.425002e-04 7.189142e-04 6.951774e-04
-5.728195e-04 -5.846017e-04 -5.951523e-04 -6.042517e-04 -6.116665e-04 -6.171511e-04 -6.204504e-04 -6.213024e-04 -6.194425e-04 -6.146078e-04 -6.065424e-04 -5.950035e-04 -5.797679e-04 -5.606394e-04 -5.374560e-04 -5.100977e-04 -4.784934e-04 -4.426286e-04 -4.025505e-04 -3.583739e-04 -3.102836e-04 -2.585366e-04 -2.034613e-04 -1.454546e-04 -8.497703e-05 -2.254488e-05 4.127914e-05 1.058974e-04 1.706903e-04 2.350299e-04 2.982947e-04 3.598831e-04 4.192271e-04 4.758042e-04 5.291477e-04 5.788550e-04 6.245933e-04 6.661034e-04 7.032006e-04 7.357736e-04 7.637816e-04 7.872493e-04 8.062610e-04 8.209531e-04 8.315068e-04 8.381401e-04 8.410996e-04 8.406529e-04 8.370818e-04 8.306755e-04 8.217246e-04 8.105169e-04 7.973324e-04 7.824404e-04 7.660968e-04 7.485421e-04 7.300000e-04 7.106768e-04 6.907611e-04 6.704236e-04 6.498176e-04
