3.085855e-04 3.159175e-04 3.229908e-04 3.297268e-04 3.360359e-04 3.418174e-04 3.469581e-04 3.513321e-04 3.548006e-04 3.572113e-04 3.583992e-04 3.581869e-04 3.563863e-04 3.528002e-04 3.472249e-04 3.394536e-04 3.292805e-04 3.165059e-04 3.009412e-04 2.824157e-04 2.607832e-04 2.359286e-04 2.077753e-04 1.762914e-04 1.414960e-04 1.034644e-04 6.233107e-05 1.829255e-05 -2.839295e-05 -7.740721e-05 -1.283760e-04 -1.808753e-04 -2.344391e-04 -2.885693e-04 -3.427466e-04 -3.964420e-04 -4.491299e-04 -5.002993e-04 -5.494656e-04 -5.961814e-04 -6.400447e-04 -6.807071e-04 -7.178782e-04 -7.513299e-04 -7.808969e-04 -8.064769e-04 -8.280279e-04 -8.455648e-04 -8.591548e-04 -8.689111e-04 -8.749871e-04 -8.775697e-04 -8.768724e-04 -8.731292e-04 -8.665879e-04 -8.575046e-04 -8.461390e-04 -8.327491e-04 -8.175878e-04 -8.008998e-04 -7.829188e-04
3.220256e-04 3.301873e-04 3.381199e-04 3.457407e-04 3.529548e-04 3.596541e-04 3.657162e-04 3.710033e-04 3.753619e-04 3.786220e-04 3.805974e-04 3.810860e-04 3.798711e-04 3.767232e-04 3.714028e-04 3.636641e-04 3.532598e-04 3.399466e-04 3.234924e-04 3.036832e-04 2.803323e-04 2.532885e-04 2.224449e-04 1.877482e-04 1.492060e-04 1.068936e-04 6.095965e-05 1.162831e-05 -4.079952e-05 -9.594854e-05 -1.533739e-04 -2.125687e-04 -2.729744e-04 -3.339929e-04 -3.950005e-04 -4.553633e-04 -5.144527e-04 -5.716606e-04 -6.264139e-04 -6.781875e-04 -7.265152e-04 -7.709987e-04 -8.113132e-04 -8.472113e-04 -8.785237e-04 -9.051580e-04 -9.270949e-04 -9.443829e-04 -9.571317e-04 -9.655045e-04 -9.697097e-04 -9.699922e-04 -9.666253e-04 -9.599024e-04 -9.501295e-04 -9.376186e-04 -9.226812e-04 -9.056237e-04 -8.867428e-04 -8.663221e-04 -8.446295e-04
3.354738e-04 3.445054e-04 3.533437e-04 3.619026e-04 3.700822e-04 3.777675e-04 3.848268e-04 3.911105e-04 3.964497e-04 4.006556e-04 4.035190e-04 4.048104e-04 4.042812e-04 4.016650e-04 3.966809e-04 3.890372e-04 3.784372e-04 3.645854e-04 3.471961e-04 3.260022e-04 3.007662e-04 2.712906e-04 2.374298e-04 1.991012e-04 1.562958e-04 1.090870e-04 5.763761e-05 2.204473e-06 -5.686059e-05 -1.191130e-04 -1.840213e-04 -2.509769e-04 -3.193068e-04 -3.882895e-04 -4.571731e-04 -5.251945e-04 -5.915996e-04 -6.556626e-04 -7.167042e-04 -7.741081e-04 -8.273339e-04 -8.759277e-04 -9.195291e-04 -9.578742e-04 -9.907961e-04 -1.018222e-03 -1.040167e-03 -1.056727e-03 -1.068069e-03 -1.074424e-03 -1.076069e-03 -1.073323e-03 -1.066533e-03 -1.056066e-03 -1.042297e-03 -1.025605e-03 -1.006362e-03 -9.849294e-04 -9.616534e-04 -9.368609e-04 -9.108571e-04
3.488082e-04 3.587413e-04 3.685228e-04 3.780640e-04 3.872608e-04 3.959919e-04 4.041166e-04 4.114734e-04 4.178779e-04 4.231213e-04 4.269700e-04 4.291645e-04 4.294203e-04 4.274293e-04 4.228629e-04 4.153758e-04 4.046126e-04 3.902152e-04 3.718326e-04 3.491322e-04 3.218127e-04 2.896183e-04 2.523531e-04 2.098960e-04 1.622143e-04 1.093761e-04 5.155970e-05 -1.094028e-05 -7.771056e-05 -1.482218e-04 -2.218359e-04 -2.978182e-04 -3.753540e-04 -4.535690e-04 -5.315524e-04 -6.083823e-04 -6.831511e-04 -7.549904e-04 -8.230941e-04 -8.867385e-04 -9.452985e-04 -9.982599e-04 -1.045227e-03 -1.085925e-03 -1.120199e-03 -1.148009e-03 -1.169423e-03 -1.184602e-03 -1.193792e-03 -1.197307e-03 -1.195517e-03 -1.188833e-03 -1.177692e-03 -1.162551e-03 -1.143868e-03 -1.122098e-03 -1.097685e-03 -1.071053e-03 -1.042603e-03 -1.012708e-03 -9.817151e-04
3.618885e-04 3.727430e-04 3.834930e-04 3.940480e-04 4.043007e-04 4.141240e-04 4.233693e-04 4.318632e-04 4.394057e-04 4.457677e-04 4.506890e-04 4.538780e-04 4.550104e-04 4.537311e-04 4.496567e-04 4.423795e-04 4.314746e-04 4.165088e-04 3.970518e-04 3.726903e-04 3.430437e-04 3.077822e-04 2.666454e-04 2.194617e-04 1.661662e-04 1.068171e-04 4.160917e-05 -2.911815e-05 -1.048768e-04 -1.850329e-04 -2.688160e-04 -3.553346e-04 -4.435972e-04 -5.325393e-04 -6.210534e-04 -7.080215e-04 -7.923482e-04 -8.729926e-04 -9.489973e-04 -1.019513e-03 -1.083821e-03 -1.141341e-03 -1.191646e-03 -1.234461e-03 -1.269658e-03 -1.297251e-03 -1.317380e-03 -1.330299e-03 -1.336357e-03 -1.335979e-03 -1.329649e-03 -1.317894e-03 -1.301264e-03 -1.280320e-03 -1.255622e-03 -1.227714e-03 -1.197119e-03 -1.164333e-03 -1.129816e-03 -1.093992e-03 -1.057248e-03
3.745563e-04 3.863370e-04 3.980646e-04 4.096479e-04 4.209769e-04 4.319203e-04 4.423217e-04 4.519971e-04 4.607308e-04 4.682728e-04 4.743356e-04 4.785922e-04 4.806752e-04 4.801765e-04 4.766500e-04 4.696155e-04 4.585665e-04 4.429794e-04 4.223280e-04 3.960997e-04 3.638153e-04 3.250520e-04 2.794670e-04 2.268231e-04 1.670121e-04 1.000775e-04 2.623158e-05 -5.413190e-05 -1.404327e-04 -2.319068e-04 -3.276182e-04 -4.264784e-04 -5.272750e-04 -6.287058e-04 -7.294187e-04 -8.280536e-04 -9.232856e-04 -1.013865e-03 -1.098657e-03 -1.176666e-03 -1.247068e-03 -1.309221e-03 -1.362672e-03 -1.407162e-03 -1.442613e-03 -1.469120e-03 -1.486928e-03 -1.496413e-03 -1.498062e-03 -1.492443e-03 -1.480186e-03 -1.461959e-03 -1.438449e-03 -1.410345e-03 -1.378321e-03 -1.343025e-03 -1.305072e-03 -1.265033e-03 -1.223433e-03 -1.180748e-03 -1.137406e-03
3.866360e-04 3.993295e-04 4.120238e-04 4.246276e-04 4.370297e-04 4.490952e-04 4.606616e-04 4.715345e-04 4.814834e-04 4.902371e-04 4.974795e-04 5.028464e-04 5.059224e-04 5.062406e-04 5.032834e-04 4.964867e-04 4.852471e-04 4.689339e-04 4.469041e-04 4.185233e-04 3.831903e-04 3.403653e-04 2.896012e-04 2.305766e-04 1.631272e-04 8.727528e-05 3.254043e-06 -8.847570e-05 -1.872179e-04 -2.920444e-04 -4.018097e-04 -5.151773e-04 -6.306563e-04 -7.466468e-04 -8.614923e-04 -9.735341e-04 -1.081168e-03 -1.182894e-03 -1.277366e-03 -1.363427e-03 -1.440141e-03 -1.506805e-03 -1.562960e-03 -1.608386e-03 -1.643090e-03 -1.667283e-03 -1.681358e-03 -1.685858e-03 -1.681446e-03 -1.668875e-03 -1.648956e-03 -1.622532e-03 -1.590454e-03 -1.553561e-03 -1.512661e-03 -1.468519e-03 -1.421848e-03 -1.373302e-03 -1.323474e-03 -1.272891e-03 -1.222019e-03
3.979375e-04 4.115086e-04 4.251341e-04 4.387236e-04 4.521656e-04 4.653228e-04 4.780274e-04 4.900759e-04 5.012234e-04 5.111778e-04 5.195933e-04 5.260657e-04 5.301279e-04 5.312468e-04 5.288234e-04 5.221960e-04 5.106475e-04 4.934183e-04 4.697243e-04 4.387816e-04 3.998376e-04 3.522064e-04 2.953100e-04 2.287201e-04 1.522012e-04 6.574926e-05 -3.037566e-05 -1.356262e-04 -2.491575e-04 -3.698308e-04 -4.962332e-04 -6.267124e-04 -7.594253e-04 -8.923987e-04 -1.023597e-03 -1.150995e-03 -1.272649e-03 -1.386764e-03 -1.491751e-03 -1.586273e-03 -1.669281e-03 -1.740027e-03 -1.798072e-03 -1.843275e-03 -1.875772e-03 -1.895944e-03 -1.904386e-03 -1.901862e-03 -1.889267e-03 -1.867584e-03 -1.837849e-03 -1.801119e-03 -1.758438e-03 -1.710819e-03 -1.659223e-03 -1.604543e-03 -1.547599e-03 -1.489132e-03 -1.429799e-03 -1.370176e-03 -1.310760e-03
4.082590e-04 4.226479e-04 4.371410e-04 4.516496e-04 4.660623e-04 4.802405e-04 4.940122e-04 5.071656e-04 5.194423e-04 5.305287e-04 5.400489e-04 5.475558e-04 5.525254e-04 5.543503e-04 5.523387e-04 5.457147e-04 5.336265e-04 5.151595e-04 4.893577e-04 4.552536e-04 4.119067e-04 3.584493e-04 2.941394e-04 2.184163e-04 1.309573e-04 3.172916e-05 -7.896751e-05 -2.004682e-04 -3.317307e-04 -4.713407e-04 -6.175386e-04 -7.682668e-04 -9.212352e-04 -1.074001e-03 -1.224061e-03 -1.368941e-03 -1.506293e-03 -1.633976e-03 -1.750129e-03 -1.853229e-03 -1.942122e-03 -2.016045e-03 -2.074623e-03 -2.117850e-03 -2.146056e-03 -2.159865e-03 -2.160142e-03 -2.147942e-03 -2.124454e-03 -2.090952e-03 -2.048747e-03 -1.999150e-03 -1.943432e-03 -1.882804e-03 -1.818395e-03 -1.751238e-03 -1.682263e-03 -1.612295e-03 -1.542052e-03 -1.472150e-03 -1.403108e-03
4.173924e-04 4.325122e-04 4.477781e-04 4.631030e-04 4.783761e-04 4.934578e-04 5.081724e-04 5.223009e-04 5.355711e-04 5.476483e-04 5.581243e-04 5.665062e-04 5.722065e-04 5.745339e-04 5.726883e-04 5.657600e-04 5.527351e-04 5.325108e-04 5.039198e-04 4.657672e-04 4.168785e-04 3.561592e-04 2.826642e-04 1.956712e-04 9.475608e-05 -2.013770e-05 -1.486417e-04 -2.899226e-04 -4.426663e-04 -6.050880e-04 -7.749709e-04 -9.497323e-04 -1.126512e-03 -1.302280e-03 -1.473957e-03 -1.638530e-03 -1.793179e-03 -1.935373e-03 -2.062960e-03 -2.174236e-03 -2.267976e-03 -2.343452e-03 -2.400421e-03 -2.439095e-03 -2.460088e-03 -2.464353e-03 -2.453121e-03 -2.427820e-03 -2.390013e-03 -2.341330e-03 -2.283413e-03 -2.217870e-03 -2.146233e-03 -2.069933e-03 -1.990280e-03 -1.908451e-03 -1.825484e-03 -1.742281e-03 -1.659608e-03 -1.578108e-03 -1.498307e-03
4.251288e-04 4.408648e-04 4.567758e-04 4.727755e-04 4.887537e-04 5.045692e-04 5.200430e-04 5.349482e-04 5.489992e-04 5.618387e-04 5.730238e-04 5.820107e-04 5.881402e-04 5.906236e-04 5.885331e-04 5.807972e-04 5.662045e-04 5.434189e-04 5.110090e-04 4.674933e-04 4.114025e-04 3.413578e-04 2.561627e-04 1.549027e-04 3.704564e-05 -9.746552e-05 -2.481379e-04 -4.138799e-04 -5.929852e-04 -7.831542e-04 -9.815540e-04 -1.184912e-03 -1.389641e-03 -1.591980e-03 -1.788152e-03 -1.974520e-03 -2.147729e-03 -2.304833e-03 -2.443400e-03 -2.561578e-03 -2.658138e-03 -2.732473e-03 -2.784576e-03 -2.814986e-03 -2.824718e-03 -2.815178e-03 -2.788066e-03 -2.745290e-03 -2.688873e-03 -2.620875e-03 -2.543329e-03 -2.458183e-03 -2.367258e-03 -2.272223e-03 -2.174574e-03 -2.075627e-03 -1.976518e-03 -1.878209e-03 -1.781498e-03 -1.687030e-03 -1.595315e-03
4.312662e-04 4.474763e-04 4.638721e-04 4.803666e-04 4.968484e-04 5.131740e-04 5.291599e-04 5.445703e-04 5.591048e-04 5.723812e-04 5.839177e-04 5.931124e-04 5.992221e-04 6.013421e-04 5.983889e-04 5.890908e-04 5.719872e-04 5.454449e-04 5.076925e-04 4.568779e-04 3.911511e-04 3.087700e-04 2.082259e-04 8.838101e-05 -5.139485e-05 -2.111002e-04 -3.900063e-04 -5.866012e-04 -7.985840e-04 -1.022911e-03 -1.255895e-03 -1.493344e-03 -1.730740e-03 -1.963429e-03 -2.186821e-03 -2.396581e-03 -2.588802e-03 -2.760148e-03 -2.907965e-03 -3.030351e-03 -3.126185e-03 -3.195117e-03 -3.237521e-03 -3.254417e-03 -3.247371e-03 -3.218380e-03 -3.169748e-03 -3.103975e-03 -3.023641e-03 -2.931314e-03 -2.829471e-03 -2.720440e-03 -2.606353e-03 -2.489119e-03 -2.370415e-03 -2.251680e-03 -2.134127e-03 -2.018748e-03 -1.906341e-03 -1.797525e-03 -1.692761e-03
4.356167e-04 4.521348e-04 4.688257e-04 4.855992e-04 5.023403e-04 5.189011e-04 5.350910e-04 5.506638e-04 5.653011e-04 5.785922e-04 5.900100e-04 5.988838e-04 6.043692e-04 6.054181e-04 6.007513e-04 5.888395e-04 5.678967e-04 5.358954e-04 4.906081e-04 4.296835e-04 3.507597e-04 2.516130e-04 1.303375e-04 -1.445983e-05 -1.834656e-04 -3.764921e-04 -5.923574e-04 -8.288321e-04 -1.082665e-03 -1.349685e-03 -1.624978e-03 -1.903106e-03 -2.178362e-03 -2.445030e-03 -2.697629e-03 -2.931134e-03 -3.141164e-03 -3.324121e-03 -3.477294e-03 -3.598917e-03 -3.688176e-03 -3.745177e-03 -3.770873e-03 -3.766956e-03 -3.735718e-03 -3.679910e-03 -3.602585e-03 -3.506951e-03 -3.396240e-03 -3.273600e-03 -3.141998e-03 -3.004165e-03 -2.862545e-03 -2.719282e-03 -2.576205e-03 -2.434847e-03 -2.296452e-03 -2.162006e-03 -2.032262e-03 -1.907768e-03 -1.788897e-03
4.380140e-04 4.546555e-04 4.714289e-04 4.882375e-04 5.049591e-04 5.214383e-04 5.374746e-04 5.528078e-04 5.670984e-04 5.799018e-04 5.906376e-04 5.985520e-04 6.026758e-04 6.017792e-04 5.943289e-04 5.784524e-04 5.519209e-04 5.121594e-04 4.562982e-04 3.812756e-04 2.839994e-04 1.615679e-04 1.153834e-05 -1.677789e-04 -3.770339e-04 -6.156001e-04 -8.814267e-04 -1.171011e-03 -1.479505e-03 -1.800944e-03 -2.128572e-03 -2.455217e-03 -2.773666e-03 -3.077013e-03 -3.358940e-03 -3.613928e-03 -3.837413e-03 -4.025880e-03 -4.176918e-03 -4.289235e-03 -4.362636e-03 -4.397960e-03 -4.396984e-03 -4.362285e-03 -4.297073e-03 -4.205014e-03 -4.090041e-03 -3.956180e-03 -3.807393e-03 -3.647454e-03 -3.479846e-03 -3.307700e-03 -3.133754e-03 -2.960345e-03 -2.789412e-03 -2.622520e-03 -2.460891e-03 -2.305441e-03 -2.156819e-03 -2.015448e-03 -1.881560e-03
4.383192e-04 4.548893e-04 4.715199e-04 4.881036e-04 5.045074e-04 5.205644e-04 5.360612e-04 5.507210e-04 5.641798e-04 5.759550e-04 5.854045e-04 5.916763e-04 5.936473e-04 5.898563e-04 5.784334e-04 5.570381e-04 5.228177e-04 4.724051e-04 4.019785e-04 3.074024e-04 1.844679e-04 2.923363e-05 -1.615459e-04 -3.899472e-04 -6.564218e-04 -9.594365e-04 -1.295288e-03 -1.658151e-03 -2.040370e-03 -2.432967e-03 -2.826286e-03 -3.210656e-03 -3.576987e-03 -3.917213e-03 -4.224556e-03 -4.493632e-03 -4.720445e-03 -4.902327e-03 -5.037858e-03 -5.126798e-03 -5.170025e-03 -5.169456e-03 -5.127947e-03 -5.049153e-03 -4.937353e-03 -4.797243e-03 -4.633725e-03 -4.451706e-03 -4.255915e-03 -4.050757e-03 -3.840216e-03 -3.627783e-03 -3.416436e-03 -3.208632e-03 -3.006342e-03 -2.811081e-03 -2.623965e-03 -2.445759e-03 -2.276935e-03 -2.117720e-03 -1.968144e-03
4.364227e-04 4.527271e-04 4.689904e-04 4.850903e-04 5.008795e-04 5.161769e-04 5.307546e-04 5.443191e-04 5.564830e-04 5.667266e-04 5.743444e-04 5.783759e-04 5.775181e-04 5.700217e-04 5.535766e-04 5.251996e-04 4.811442e-04 4.168635e-04 3.270659e-04 2.059040e-04 4.733636e-05 -1.543234e-04 -4.036889e-04 -7.034831e-04 -1.053745e-03 -1.451220e-03 -1.889101e-03 -2.357237e-03 -2.842845e-03 -3.331624e-03 -3.809077e-03 -4.261781e-03 -4.678367e-03 -5.050064e-03 -5.370779e-03 -5.636829e-03 -5.846479e-03 -5.999464e-03 -6.096629e-03 -6.139708e-03 -6.131239e-03 -6.074548e-03 -5.973725e-03 -5.833561e-03 -5.659403e-03 -5.456966e-03 -5.232100e-03 -4.990560e-03 -4.737796e-03 -4.478796e-03 -4.217963e-03 -3.959065e-03 -3.705209e-03 -3.458869e-03 -3.221927e-03 -2.995741e-03 -2.781210e-03 -2.578848e-03 -2.388857e-03 -2.211187e-03 -2.045597e-03
4.322423e-04 4.480993e-04 4.637868e-04 4.791651e-04 4.940706e-04 5.083085e-04 5.216395e-04 5.337602e-04 5.442714e-04 5.526317e-04 5.580889e-04 5.595864e-04 5.556364e-04 5.441609e-04 5.223022e-04 4.862185e-04 4.308941e-04 3.500126e-04 2.359637e-04 8.007052e-05 -1.268791e-04 -3.937364e-04 -7.277393e-04 -1.133016e-03 -1.609077e-03 -2.149638e-03 -2.742150e-03 -3.368310e-03 -4.005661e-03 -4.630031e-03 -5.218359e-03 -5.751258e-03 -6.214746e-03 -6.600833e-03 -6.906986e-03 -7.134800e-03 -7.288385e-03 -7.372941e-03 -7.393791e-03 -7.355983e-03 -7.264311e-03 -7.123581e-03 -6.938893e-03 -6.715832e-03 -6.460472e-03 -6.179254e-03 -5.878738e-03 -5.565343e-03 -5.245086e-03 -4.923383e-03 -4.604920e-03 -4.293586e-03 -3.992469e-03 -3.703903e-03 -3.429534e-03 -3.170416e-03 -2.927100e-03 -2.699733e-03 -2.488140e-03 -2.291907e-03 -2.110441e-03
4.257140e-04 4.409651e-04 4.558998e-04 4.703602e-04 4.841688e-04 4.971225e-04 5.089830e-04 5.194578e-04 5.281677e-04 5.345943e-04 5.379966e-04 5.372870e-04 5.308531e-04 5.163156e-04 4.902175e-04 4.476563e-04 3.818940e-04 2.840189e-04 1.427808e-04 -5.523118e-05 -3.248719e-04 -6.810098e-04 -1.136316e-03 -1.698415e-03 -2.366826e-03 -3.130420e-03 -3.966260e-03 -4.840581e-03 -5.712177e-03 -6.537780e-03 -7.278253e-03 -7.904058e-03 -8.398566e-03 -8.758472e-03 -8.991507e-03 -9.112408e-03 -9.138545e-03 -9.086367e-03 -8.969353e-03 -8.797517e-03 -8.578021e-03 -8.316323e-03 -8.017324e-03 -7.686169e-03 -7.328618e-03 -6.951036e-03 -6.560125e-03 -6.162559e-03 -5.764624e-03 -5.371926e-03 -4.989217e-03 -4.620305e-03 -4.268064e-03 -3.934498e-03 -3.620837e-03 -3.327666e-03 -3.055039e-03 -2.802603e-03 -2.569698e-03 -2.355447e-03 -2.158833e-03
4.167751e-04 4.312932e-04 4.453407e-04 4.587448e-04 4.713214e-04 4.828744e-04 4.931924e-04 5.020359e-04 5.091115e-04 5.140195e-04 5.161625e-04 5.145930e-04 5.077748e-04 4.932297e-04 4.670441e-04 4.232255e-04 3.529360e-04 2.436950e-04 7.874274e-05 -1.631222e-04 -5.068019e-04 -9.787870e-04 -1.603336e-03 -2.396995e-03 -3.362155e-03 -4.481145e-03 -5.712920e-03 -6.994348e-03 -8.247140e-03 -9.389651e-03 -1.035085e-02 -1.108253e-02 -1.156621e-02 -1.181272e-02 -1.185531e-02 -1.173886e-02 -1.150908e-02 -1.120436e-02 -1.085194e-02 -1.046803e-02 -1.006041e-02 -9.632032e-03 -9.184125e-03 -8.718397e-03 -8.238004e-03 -7.747654e-03 -7.253169e-03 -6.760842e-03 -6.276812e-03 -5.806582e-03 -5.354726e-03 -4.924752e-03 -4.519105e-03 -4.139253e-03 -3.785820e-03 -3.458746e-03 -3.157437e-03 -2.880908e-03 -2.627903e-03 -2.396997e-03 -2.186677e-03
4.053405e-04 4.190309e-04 4.321021e-04 4.443746e-04 4.556723e-04 4.658318e-04 4.747121e-04 4.821990e-04 4.881975e-04 4.925986e-04 4.951995e-04 4.955432e-04 4.926316e-04 4.844506e-04 4.672346e-04 4.344052e-04 3.751532e-04 2.727328e-04 1.027116e-04 -1.683014e-04 -5.825946e-04 -1.188817e-03 -2.035832e-03 -3.162398e-03 -4.583506e-03 -6.276235e-03 -8.169936e-03 -1.014620e-02 -1.205222e-02 -1.372668e-02 -1.503195e-02 -1.588273e-02 -1.626133e-02 -1.621494e-02 -1.583671e-02 -1.523845e-02 -1.452451e-02 -1.377432e-02 -1.303624e-02 -1.233089e-02 -1.165968e-02 -1.101431e-02 -1.038439e-02 -9.762001e-03 -9.143458e-03 -8.529239e-03 -7.922852e-03 -7.329469e-03 -6.754709e-03 -6.203754e-03 -5.680829e-03 -5.188973e-03 -4.730024e-03 -4.304735e-03 -3.912951e-03 -3.553806e-03 -3.225921e-03 -2.927561e-03 -2.656784e-03 -2.411546e-03 -2.189782e-03
3.912733e-04 4.040649e-04 4.161064e-04 4.272234e-04 4.372687e-04 4.461482e-04 4.538536e-04 4.604992e-04 4.663575e-04 4.718779e-04 4.776645e-04 4.843653e-04 4.923997e-04 5.014122e-04 5.092977e-04 5.106070e-04 4.941433e-04 4.396521e-04 3.137669e-04 6.589252e-05 -3.744782e-04 -1.096539e-03 -2.199857e-03 -3.776194e-03 -5.881182e-03 -8.500488e-03 -1.152125e-02 -1.472342e-02 -1.780301e-02 -2.042869e-02 -2.231756e-02 -2.330463e-02 -2.337964e-02 -2.267784e-02 -2.143027e-02 -1.989509e-02 -1.829599e-02 -1.678589e-02 -1.544012e-02 -1.427149e-02 -1.325488e-02 -1.235038e-02 -1.151958e-02 -1.073368e-02 -9.975544e-03 -9.238009e-03 -8.520874e-03 -7.827806e-03 -7.163939e-03 -6.534258e-03 -5.942725e-03 -5.391914e-03 -4.882996e-03 -4.415908e-03 -3.989596e-03 -3.602279e-03 -3.251688e-03 -2.935263e-03 -2.650312e-03 -2.394130e-03 -2.164080e-03
3.743549e-04 3.861793e-04 3.971466e-04 4.071008e-04 4.159472e-04 4.237028e-04 4.305654e-04 4.370054e-04 4.438793e-04 4.525568e-04 4.650391e-04 4.840161e-04 5.127678e-04 5.547373e-04 6.125020e-04 6.857345e-04 7.676194e-04 8.391505e-04 8.609535e-04 7.630257e-04 4.343851e-04 -2.828019e-04 -1.587015e-03 -3.689839e-03 -6.760726e-03 -1.084829e-02 -1.579997e-02 -2.121822e-02 -2.649241e-02 -3.092026e-02 -3.388965e-02 -3.505288e-02 -3.442080e-02 -3.233720e-02 -2.934922e-02 -2.603441e-02 -2.285574e-02 -2.008956e-02 -1.782960e-02 -1.603933e-02 -1.461691e-02 -1.344770e-02 -1.243511e-02 -1.151186e-02 -1.063887e-02 -9.798477e-03 -8.986677e-03 -8.206598e-03 -7.463996e-03 -6.764554e-03 -6.112554e-03 -5.510433e-03 -4.958837e-03 -4.456921e-03 -4.002715e-03 -3.593483e-03 -3.226030e-03 -2.896944e-03 -2.602775e-03 -2.340157e-03 -2.105892e-03
3.542596e-04 3.650191e-04 3.748333e-04 3.835748e-04 3.912203e-04 3.979330e-04 4.041838e-04 4.109236e-04 4.198213e-04 4.335755e-04 4.562997e-04 4.939485e-04 5.546960e-04 6.490641e-04 7.894093e-04 9.880772e-04 1.253117e-03 1.579990e-03 1.937425e-03 2.246095e-03 2.351010e-03 1.993826e-03 8.000319e-04 -1.694147e-03 -5.947341e-03 -1.224038e-02 -2.046011e-02 -2.993397e-02 -3.943794e-02 -4.744872e-02 -5.258462e-02 -5.405608e-02 -5.191741e-02 -4.700262e-02 -4.058666e-02 -3.394522e-02 -2.801247e-02 -2.324879e-02 -1.970312e-02 -1.717370e-02 -1.536947e-02 -1.401882e-02 -1.291867e-02 -1.194098e-02 -1.101824e-02 -1.012344e-02 -9.252554e-03 -8.412096e-03 -7.611534e-03 -6.859365e-03 -6.161511e-03 -5.521022e-03 -4.938424e-03 -4.412293e-03 -3.939841e-03 -3.517435e-03 -3.141003e-03 -2.806323e-03 -2.509236e-03 -2.245774e-03 -2.012238e-03
3.305444e-04 3.400703e-04 3.485623e-04 3.559208e-04 3.621962e-04 3.677084e-04 3.732311e-04 3.802699e-04 3.914697e-04 4.111980e-04 4.463528e-04 5.074318e-04 6.098528e-04 7.753962e-04 1.033380e-03 1.420687e-03 1.978893e-03 2.745425e-03 3.733963e-03 4.897934e-03 6.071875e-03 6.892614e-03 6.720884e-03 4.616274e-03 -5.479788e-04 -9.747662e-03 -2.326058e-02 -4.011599e-02 -5.791228e-02 -7.330072e-02 -8.306269e-02 -8.529703e-02 -8.011630e-02 -6.950143e-02 -5.641400e-02 -4.365845e-02 -3.306929e-02 -2.530801e-02 -2.015033e-02 -1.694422e-02 -1.498261e-02 -1.370056e-02 -1.272679e-02 -1.185636e-02 -1.099852e-02 -1.012869e-02 -9.254205e-03 -8.393589e-03 -7.565805e-03 -6.785710e-03 -6.062909e-03 -5.402197e-03 -4.804589e-03 -4.268418e-03 -3.790292e-03 -3.365833e-03 -2.990216e-03 -2.658536e-03 -2.366042e-03 -2.108277e-03 -1.881151e-03
3.026596e-04 3.106695e-04 3.175203e-04 3.231221e-04 3.275708e-04 3.313056e-04 3.353586e-04 3.417474e-04 3.540809e-04 3.784788e-04 4.249419e-04 5.093463e-04 6.562524e-04 9.026749e-04 1.302757e-03 1.932727e-03 2.894283e-03 4.312059e-03 6.316530e-03 8.997428e-03 1.230624e-02 1.588686e-02 1.883718e-02 1.947590e-02 1.531704e-02 3.571289e-03 -1.760572e-02 -4.743195e-02 -8.145260e-02 -1.123047e-01 -1.323539e-01 -1.368440e-01 -1.258403e-01 -1.039694e-01 -7.811543e-02 -5.442391e-02 -3.635291e-02 -2.452522e-02 -1.778307e-02 -1.440394e-02 -1.287224e-02 -1.215290e-02 -1.166370e-02 -1.114018e-02 -1.050193e-02 -9.757140e-03 -8.946279e-03 -8.113637e-03 -7.295649e-03 -6.517875e-03 -5.795860e-03 -5.137294e-03 -4.544281e-03 -4.015271e-03 -3.546514e-03 -3.133102e-03 -2.769657e-03 -2.450783e-03 -2.171320e-03 -1.926496e-03 -1.711985e-03
2.699874e-04 2.760500e-04 2.807438e-04 2.839441e-04 2.857249e-04 2.865403e-04 2.875256e-04 2.909866e-04 3.011876e-04 3.256047e-04 3.768991e-04 4.759834e-04 6.567108e-04 9.728824e-04 1.508367e-03 2.390932e-03 3.809377e-03 6.030649e-03 9.406827e-03 1.434817e-02 2.121522e-02 3.005360e-02 4.008466e-02 4.894433e-02 5.195446e-02 4.226815e-02 1.313580e-02 -3.741509e-02 -1.021654e-01 -1.651927e-01 -2.084128e-01 -2.198055e-01 -1.986083e-01 -1.552832e-01 -1.058200e-01 -6.359992e-02 -3.463765e-02 -1.834922e-02 -1.102840e-02 -8.761179e-03 -8.718776e-03 -9.285685e-03 -9.725564e-03 -9.807157e-03 -9.537078e-03 -9.006749e-03 -8.318741e-03 -7.558201e-03 -6.786215e-03 -6.042178e-03 -5.348817e-03 -4.717182e-03 -4.150682e-03 -3.648043e-03 -3.205351e-03 -2.817382e-03 -2.478451e-03 -2.182910e-03 -1.925428e-03 -1.701132e-03 -1.505662e-03
2.319096e-04 2.354294e-04 2.372326e-04 2.370901e-04 2.349421e-04 2.310804e-04 2.264629e-04 2.232441e-04 2.256624e-04 2.415105e-04 2.845569e-04 3.785088e-04 5.634487e-04 9.061849e-04 1.516650e-03 2.573279e-03 4.360807e-03 7.322951e-03 1.212692e-02 1.971995e-02 3.131750e-02 4.818146e-02 7.091877e-02 9.792680e-02 1.228266e-01 1.319574e-01 1.058258e-01 2.997104e-02 -8.805612e-02 -2.147660e-01 -3.087029e-01 -3.407940e-01 -3.053711e-01 -2.241209e-01 -1.342616e-01 -6.446048e-02 -2.306639e-02 -4.461668e-03 6.508745e-04 -3.280201e-04 -3.068417e-03 -5.592792e-03 -7.269604e-03 -8.084541e-03 -8.235507e-03 -7.947446e-03 -7.405499e-03 -6.741873e-03 -6.042740e-03 -5.359988e-03 -4.722063e-03 -4.142313e-03 -3.624849e-03 -3.168450e-03 -2.769055e-03 -2.421301e-03 -2.119436e-03 -1.857833e-03 -1.631255e-03 -1.434981e-03 -1.264833e-03
1.878992e-04 1.881290e-04 1.861112e-04 1.814226e-04 1.737242e-04 1.629101e-04 1.493771e-04 1.345031e-04 1.214794e-04 1.167495e-04 1.324780e-04 1.907752e-04 3.309036e-04 6.215350e-04 1.181500e-03 2.214628e-03 4.067417e-03 7.322143e-03 1.294077e-02 2.247023e-02 3.829001e-02 6.378874e-02 1.031215e-01 1.597091e-01 2.318183e-01 3.030527e-01 3.303415e-01 2.540726e-01 6.186470e-02 -1.733483e-01 -3.654898e-01 -4.584034e-01 -4.196584e-01 -2.821368e-01 -1.373070e-01 -4.232518e-02 2.330485e-03 1.559731e-02 1.416057e-02 8.079459e-03 2.050184e-03 -2.369630e-03 -5.063593e-03 -6.405404e-03 -6.833773e-03 -6.706494e-03 -6.275502e-03 -5.703550e-03 -5.089070e-03 -4.487759e-03 -3.928408e-03 -3.423597e-03 -2.976556e-03 -2.585428e-03 -2.245835e-03 -1.952371e-03 -1.699445e-03 -1.481725e-03 -1.294348e-03 -1.132996e-03 -9.939069e-04
1.376236e-04 1.337100e-04 1.268112e-04 1.162142e-04 1.011463e-04 8.084989e-05 5.474156e-05 2.272159e-05 -1.424444e-05 -5.306035e-05 -8.657308e-05 -1.001151e-04 -6.532042e-05 7.092108e-05 4.061811e-04 1.117656e-03 2.524688e-03 5.199161e-03 1.015783e-02 1.918950e-02 3.539047e-02 6.398885e-02 1.135034e-01 1.971344e-01 3.334859e-01 5.398808e-01 7.848052e-01 8.751821e-01 6.400487e-01 3.198269e-01 2.378910e-02 -2.570279e-01 -3.264490e-01 -1.452542e-01 -1.472079e-02 2.450400e-02 3.362619e-02 2.979895e-02 2.039205e-02 1.078372e-02 3.418201e-03 -1.342544e-03 -4.003792e-03 -5.229072e-03 -5.569690e-03 -5.412244e-03 -5.003766e-03 -4.492180e-03 -3.960996e-03 -3.454100e-03 -2.992005e-03 -2.581982e-03 -2.224156e-03 -1.915088e-03 -1.649804e-03 -1.422918e-03 -1.229212e-03 -1.063910e-03 -9.227867e-04 -8.021762e-04 -6.989395e-04
8.104311e-05 7.210137e-05 5.923957e-05 4.137337e-05 1.716566e-05 -1.500600e-05 -5.706109e-05 -1.111776e-04 -1.796459e-04 -2.645048e-04 -3.667548e-04 -4.847575e-04 -6.110947e-04 -7.265116e-04 -7.883676e-04 -7.087364e-04 -3.130386e-04 7.378191e-04 3.093269e-03 7.984310e-03 1.772468e-02 3.664247e-02 7.290863e-02 1.427643e-01 2.831284e-01 5.947406e-01 1.343094e+00 2.511902e+00 2.500603e+00 3.106658e+00 3.164884e+00 2.310728e+00 1.307715e+00 1.241544e+00 4.039887e-01 8.620447e-02 2.743652e-02 1.540448e-02 8.495103e-03 2.830073e-03 -1.137517e-03 -3.430130e-03 -4.471074e-03 -4.719267e-03 -4.525477e-03 -4.118955e-03 -3.635634e-03 -3.149748e-03 -2.697997e-03 -2.295571e-03 -1.946009e-03 -1.646979e-03 -1.393537e-03 -1.179891e-03 -1.000302e-03 -8.495062e-04 -7.228728e-04 -6.164305e-04 -5.268243e-04 -4.512471e-04 -3.873639e-04
1.848609e-05 3.694018e-06 -1.610419e-05 -4.241112e-05 -7.720016e-05 -1.230731e-04 -1.834735e-04 -2.629757e-04 -3.676763e-04 -5.057220e-04 -6.880163e-04 -9.291516e-04 -1.248608e-03 -1.672226e-03 -2.233865e-03 -2.976930e-03 -3.954979e-03 -5.229736e-03 -6.863419e-03 -8.900918e-03 -1.133901e-02 -1.409484e-02 -1.703930e-02 -2.026499e-02 -2.460221e-02 -2.915162e-02 6.306599e-03 5.707902e-01 4.556055e+00 8.149988e+00 8.119476e+00 7.978830e+00 7.580634e+00 6.578772e-01 -1.672951e-01 -1.055740e-01 -5.499230e-02 -3.034330e-02 -1.887582e-02 -1.308764e-02 -9.708768e-03 -7.443733e-03 -5.785241e-03 -4.518550e-03 -3.535451e-03 -2.768859e-03 -2.170587e-03 -1.703606e-03 -1.338888e-03 -1.053672e-03 -8.301912e-04 -6.546561e-04 -5.163984e-04 -4.071816e-04 -3.206485e-04 -2.518879e-04 -1.970985e-04 -1.533304e-04 -1.182875e-04 -9.017660e-05 -6.759189e-05
-4.931470e-05 -7.061941e-05 -9.808963e-05 -1.336438e-04 -1.798809e-04 -2.403578e-04 -3.199949e-04 -4.256790e-04 -5.671690e-04 -7.584800e-04 -1.020026e-03 -1.381996e-03 -1.889749e-03 -2.612596e-03 -3.658326e-03 -5.197645e-03 -7.505982e-03 -1.103620e-02 -1.654706e-02 -2.533447e-02 -3.965750e-02 -6.355779e-02 -1.045720e-01 -1.778752e-01 -3.183250e-01 -6.196551e-01 -1.337692e+00 -2.675359e+00 -3.512159e+00 -4.489844e+00 -4.649855e+00 -3.877268e+00 -2.555691e+00 -1.664699e+00 -6.089515e-01 -2.165460e-01 -1.046928e-01 -6.266735e-02 -4.019099e-02 -2.594302e-02 -1.657042e-02 -1.043307e-02 -6.457202e-03 -3.903577e-03 -2.273313e-03 -1.237843e-03 -5.842508e-04 -1.757024e-04 7.550188e-05 2.256217e-04 3.108531e-04 3.545714e-04 3.719299e-04 3.727822e-04 3.635470e-04 3.484049e-04 3.300702e-04 3.102931e-04 2.901875e-04 2.704470e-04 2.514881e-04
-1.212326e-04 -1.494687e-04 -1.850060e-04 -2.301228e-04 -2.879459e-04 -3.628190e-04 -4.608527e-04 -5.907572e-04 -7.651189e-04 -1.002384e-03 -1.329980e-03 -1.789305e-03 -2.443781e-03 -3.392047e-03 -4.789787e-03 -6.886190e-03 -1.008521e-02 -1.504864e-02 -2.286847e-02 -3.535044e-02 -5.546540e-02 -8.802876e-02 -1.406352e-01 -2.247551e-01 -3.563703e-01 -5.518877e-01 -7.977764e-01 -9.717955e-01 -9.284344e-01 -7.547952e-01 -5.160675e-01 -2.335505e-01 -5.019236e-02 -3.990354e-02 -6.062257e-02 -6.606835e-02 -6.340410e-02 -5.323973e-02 -3.968229e-02 -2.695947e-02 -1.697934e-02 -9.919161e-03 -5.240896e-03 -2.282858e-03 -4.868901e-04 5.554698e-04 1.122667e-03 1.397105e-03 1.495414e-03 1.490962e-03 1.429305e-03 1.338369e-03 1.234994e-03 1.129105e-03 1.026336e-03 9.296836e-04 8.405435e-04 7.593569e-04 6.860137e-04 6.201020e-04 5.610608e-04
-1.958046e-04 -2.310906e-04 -2.746911e-04 -3.291423e-04 -3.979299e-04 -4.859043e-04 -5.999014e-04 -7.496787e-04 -9.493453e-04 -1.219568e-03 -1.591006e-03 -2.109720e-03 -2.845732e-03 -3.906682e-03 -5.459651e-03 -7.765953e-03 -1.123608e-02 -1.651451e-02 -2.460487e-02 -3.703886e-02 -5.606159e-02 -8.471852e-02 -1.265281e-01 -1.840549e-01 -2.552355e-01 -3.264391e-01 -3.648895e-01 -3.257123e-01 -1.918965e-01 -4.930052e-03 1.696025e-01 2.781608e-01 2.882829e-01 2.133976e-01 1.120571e-01 3.375060e-02 -8.416410e-03 -2.306614e-02 -2.295564e-02 -1.731164e-02 -1.094832e-02 -5.722777e-03 -2.010916e-03 3.858963e-04 1.806177e-03 2.560363e-03 2.885682e-03 2.948177e-03 2.858166e-03 2.686330e-03 2.476590e-03 2.255382e-03 2.037981e-03 1.832672e-03 1.643454e-03 1.471755e-03 1.317515e-03 1.179859e-03 1.057504e-03 9.490120e-04 8.529264e-04
-2.713265e-04 -3.134591e-04 -3.647126e-04 -4.277508e-04 -5.062097e-04 -6.051122e-04 -7.314792e-04 -8.952403e-04 -1.110598e-03 -1.398088e-03 -1.787708e-03 -2.323685e-03 -3.071731e-03 -4.130074e-03 -5.646019e-03 -7.840303e-03 -1.104153e-02 -1.573130e-02 -2.259451e-02 -3.255260e-02 -4.672033e-02 -6.615634e-02 -9.117988e-02 -1.199800e-01 -1.465140e-01 -1.587541e-01 -1.402770e-01 -7.867106e-02 2.184615e-02 1.360413e-01 2.290114e-01 2.730831e-01 2.594001e-01 2.018185e-01 1.288636e-01 6.624634e-02 2.525133e-02 4.363295e-03 -3.195288e-03 -3.895078e-03 -1.973604e-03 3.892766e-04 2.319244e-03 3.606631e-03 4.316508e-03 4.593314e-03 4.578690e-03 4.385037e-03 4.092735e-03 3.755525e-03 3.407406e-03 3.068682e-03 2.750568e-03 2.458466e-03 2.194184e-03 1.957409e-03 1.746648e-03 1.559820e-03 1.394623e-03 1.248743e-03 1.119977e-03
-3.459727e-04 -3.944396e-04 -4.525690e-04 -5.230148e-04 -6.093521e-04 -7.164498e-04 -8.510086e-04 -1.022343e-03 -1.243519e-03 -1.533017e-03 -1.917160e-03 -2.433624e-03 -3.136493e-03 -4.103363e-03 -5.444993e-03 -7.317612e-03 -9.936758e-03 -1.358842e-02 -1.862659e-02 -2.543367e-02 -3.430012e-02 -4.515735e-02 -5.709777e-02 -6.770237e-02 -7.246098e-02 -6.501623e-02 -3.919740e-02 7.044201e-03 6.791203e-02 1.297913e-01 1.762800e-01 1.953225e-01 1.843314e-01 1.508158e-01 1.081043e-01 6.864250e-02 3.931596e-02 2.111584e-02 1.161487e-02 7.572018e-03 6.357803e-03 6.306162e-03 6.542148e-03 6.691777e-03 6.646869e-03 6.417676e-03 6.054386e-03 5.611077e-03 5.132236e-03 4.649862e-03 4.184801e-03 3.749297e-03 3.349499e-03 2.987497e-03 2.662835e-03 2.373570e-03 2.116975e-03 1.890000e-03 1.689551e-03 1.512658e-03 1.356561e-03
-4.179226e-04 -4.719443e-04 -5.358792e-04 -6.122459e-04 -7.043761e-04 -8.167176e-04 -9.552605e-04 -1.128134e-03 -1.346440e-03 -1.625421e-03 -1.986053e-03 -2.457207e-03 -3.078463e-03 -3.903592e-03 -5.004405e-03 -6.474058e-03 -8.427564e-03 -1.099484e-02 -1.429763e-02 -1.839622e-02 -2.318715e-02 -2.823590e-02 -3.255406e-02 -3.439780e-02 -3.127589e-02 -2.044397e-02 -5.449060e-05 2.932679e-02 6.374109e-02 9.639629e-02 1.199101e-01 1.291809e-01 1.233649e-01 1.059455e-01 8.291614e-02 6.015513e-02 4.148057e-02 2.818654e-02 1.974824e-02 1.485671e-02 1.218008e-02 1.070775e-02 9.800408e-03 9.109869e-03 8.475123e-03 7.838992e-03 7.193992e-03 6.551789e-03 5.928041e-03 5.336022e-03 4.784730e-03 4.279009e-03 3.820388e-03 3.408043e-03 3.039637e-03 2.711966e-03 2.421422e-03 2.164306e-03 1.937021e-03 1.736188e-03 1.558707e-03
-4.854791e-04 -5.440712e-04 -6.125393e-04 -6.931683e-04 -7.889127e-04 -9.036193e-04 -1.042329e-03 -1.211678e-03 -1.420432e-03 -1.680168e-03 -2.006144e-03 -2.418318e-03 -2.942447e-03 -3.611020e-03 -4.463490e-03 -5.544740e-03 -6.899885e-03 -8.562258e-03 -1.053001e-02 -1.272590e-02 -1.493642e-02 -1.673433e-02 -1.740675e-02 -1.594091e-02 -1.114763e-02 -1.995018e-03 1.186519e-02 2.956748e-02 4.883296e-02 6.637660e-02 7.888422e-02 8.415093e-02 8.182992e-02 7.342965e-02 6.159403e-02 4.907047e-02 3.788408e-02 2.902319e-02 2.259388e-02 1.819060e-02 1.524380e-02 1.323450e-02 1.177860e-02 1.062954e-02 9.646949e-03 8.760071e-03 7.938373e-03 7.171755e-03 6.458836e-03 5.800782e-03 5.198490e-03 4.651592e-03 4.158366e-03 3.715997e-03 3.320943e-03 2.969268e-03 2.656915e-03 2.379891e-03 2.134398e-03 1.916908e-03 1.724194e-03
-5.471667e-04 -6.092113e-04 -6.808340e-04 -7.640207e-04 -8.612700e-04 -9.757393e-04 -1.111431e-03 -1.273421e-03 -1.468137e-03 -1.703669e-03 -1.990092e-03 -2.339709e-03 -2.767092e-03 -3.288621e-03 -3.921059e-03 -4.678373e-03 -5.565673e-03 -6.568720e-03 -7.637419e-03 -8.662430e-03 -9.446590e-03 -9.678200e-03 -8.921714e-03 -6.650193e-03 -2.345592e-03 4.324398e-03 1.328729e-02 2.389418e-02 3.491213e-02 4.475235e-02 5.189235e-02 5.533169e-02 5.488252e-02 5.116787e-02 4.534361e-02 3.868932e-02 3.225340e-02 2.667397e-02 2.218481e-02 1.873407e-02 1.612729e-02 1.413815e-02 1.257028e-02 1.127888e-02 1.016891e-02 9.183568e-03 8.291606e-03 7.476952e-03 6.731567e-03 6.051060e-03 5.432284e-03 4.872199e-03 4.367449e-03 3.914303e-03 3.508765e-03 3.146724e-03 2.824096e-03 2.536940e-03 2.281537e-03 2.054435e-03 1.852479e-03
-6.018023e-04 -6.661205e-04 -7.395011e-04 -8.235982e-04 -9.204274e-04 -1.032447e-03 -1.162647e-03 -1.314652e-03 -1.492806e-03 -1.702236e-03 -1.948829e-03 -2.239052e-03 -2.579472e-03 -2.975765e-03 -3.430900e-03 -3.942053e-03 -4.495750e-03 -5.060743e-03 -5.578460e-03 -5.951769e-03 -6.034495e-03 -5.626728e-03 -4.483815e-03 -2.348249e-03 9.896701e-04 5.607185e-03 1.136248e-02 1.784413e-02 2.439599e-02 3.023414e-02 3.463073e-02 3.710155e-02 3.752405e-02 3.614048e-02 3.345158e-02 3.005239e-02 2.647812e-02 2.310947e-02 2.015017e-02 1.765793e-02 1.559795e-02 1.389355e-02 1.246164e-02 1.123130e-02 1.014986e-02 9.181804e-03 8.304828e-03 7.505481e-03 6.775621e-03 6.109921e-03 5.504318e-03 4.955168e-03 4.458853e-03 4.011656e-03 3.609774e-03 3.249388e-03 2.926746e-03 2.638235e-03 2.380439e-03 2.150175e-03 1.944513e-03
-6.485360e-04 -7.139541e-04 -7.877516e-04 -8.712461e-04 -9.659837e-04 -1.073769e-03 -1.196689e-03 -1.337119e-03 -1.497699e-03 -1.681246e-03 -1.890562e-03 -2.128075e-03 -2.395201e-03 -2.691324e-03 -3.012189e-03 -3.347562e-03 -3.677981e-03 -3.970612e-03 -4.174532e-03 -4.216343e-03 -3.997912e-03 -3.398957e-03 -2.287846e-03 -5.433491e-04 1.912611e-03 5.076309e-03 8.829023e-03 1.292463e-02 1.701112e-02 2.068859e-02 2.359109e-02 2.546683e-02 2.622912e-02 2.596097e-02 2.487489e-02 2.324622e-02 2.134546e-02 1.939008e-02 1.752401e-02 1.582131e-02 1.430355e-02 1.296080e-02 1.176919e-02 1.070250e-02 9.738146e-03 8.859089e-03 8.053491e-03 7.313477e-03 6.633757e-03 6.010499e-03 5.440544e-03 4.920941e-03 4.448713e-03 4.020785e-03 3.633990e-03 3.285125e-03 2.971010e-03 2.688556e-03 2.434805e-03 2.206973e-03 2.002469e-03
-6.868617e-04 -7.522676e-04 -8.252536e-04 -9.068181e-04 -9.980786e-04 -1.100267e-03 -1.214708e-03 -1.342778e-03 -1.485811e-03 -1.644952e-03 -1.820903e-03 -2.013538e-03 -2.221307e-03 -2.440385e-03 -2.663487e-03 -2.878305e-03 -3.065598e-03 -3.197071e-03 -3.233422e-03 -3.123229e-03 -2.803690e-03 -2.204515e-03 -1.256155e-03 9.714077e-05 1.880499e-03 4.071088e-03 6.585666e-03 9.279091e-03 1.195807e-02 1.440988e-02 1.643989e-02 1.790752e-02 1.874973e-02 1.898525e-02 1.869980e-02 1.801883e-02 1.707751e-02 1.599666e-02 1.486902e-02 1.375605e-02 1.269207e-02 1.169183e-02 1.075824e-02 9.888485e-03 9.077919e-03 8.322126e-03 7.617642e-03 6.961955e-03 6.353202e-03 5.789820e-03 5.270270e-03 4.792866e-03 4.355701e-03 3.956649e-03 3.593403e-03 3.263537e-03 2.964572e-03 2.694040e-03 2.449528e-03 2.228723e-03 2.029434e-03
-7.166037e-04 -7.809895e-04 -8.520883e-04 -9.306102e-04 -1.017300e-03 -1.112913e-03 -1.218166e-03 -1.333674e-03 -1.459831e-03 -1.596650e-03 -1.743517e-03 -1.898845e-03 -2.059603e-03 -2.220691e-03 -2.374141e-03 -2.508188e-03 -2.606250e-03 -2.645999e-03 -2.598791e-03 -2.429857e-03 -2.099784e-03 -1.567807e-03 -7.972393e-04 2.370995e-04 1.540378e-03 3.089975e-03 4.830897e-03 6.676807e-03 8.518042e-03 1.023600e-02 1.172102e-02 1.288936e-02 1.369474e-02 1.413175e-02 1.423071e-02 1.404660e-02 1.364572e-02 1.309366e-02 1.244720e-02 1.175042e-02 1.103455e-02 1.032007e-02 9.619568e-03 8.940508e-03 8.287354e-03 7.662932e-03 7.069188e-03 6.507528e-03 5.978916e-03 5.483885e-03 5.022518e-03 4.594457e-03 4.198932e-03 3.834817e-03 3.500704e-03 3.194972e-03 2.915866e-03 2.661557e-03 2.430197e-03 2.219965e-03 2.029096e-03
-7.378829e-04 -8.003747e-04 -8.686868e-04 -9.432794e-04 -1.024587e-03 -1.112983e-03 -1.208724e-03 -1.311872e-03 -1.422185e-03 -1.538963e-03 -1.660839e-03 -1.785512e-03 -1.909393e-03 -2.027188e-03 -2.131411e-03 -2.211862e-03 -2.255163e-03 -2.244445e-03 -2.159377e-03 -1.976762e-03 -1.671918e-03 -1.221052e-03 -6.046356e-04 1.884444e-04 1.156570e-03 2.281850e-03 3.528473e-03 4.843942e-03 6.163602e-03 7.418022e-03 8.541887e-03 9.482443e-03 1.020559e-02 1.069833e-02 1.096735e-02 1.103464e-02 1.093150e-02 1.069270e-02 1.035176e-02 9.938090e-03 9.475743e-03 8.983489e-03 8.475558e-03 7.962643e-03 7.452832e-03 6.952328e-03 6.465944e-03 5.997415e-03 5.549580e-03 5.124495e-03 4.723525e-03 4.347420e-03 3.996394e-03 3.670212e-03 3.368276e-03 3.089705e-03 2.833410e-03 2.598163e-03 2.382654e-03 2.185532e-03 2.005449e-03
-7.510699e-04 -8.109451e-04 -8.757566e-04 -9.457562e-04 -1.021130e-03 -1.101958e-03 -1.188161e-03 -1.279424e-03 -1.375100e-03 -1.474081e-03 -1.574635e-03 -1.674207e-03 -1.769182e-03 -1.854618e-03 -1.923966e-03 -1.968821e-03 -1.978744e-03 -1.941248e-03 -1.842043e-03 -1.665650e-03 -1.396484e-03 -1.020452e-03 -5.270106e-04 8.851639e-05 8.227016e-04 1.662361e-03 2.583991e-03 3.554705e-03 4.534786e-03 5.481599e-03 6.354209e-03 7.117824e-03 7.747192e-03 8.228335e-03 8.558458e-03 8.744308e-03 8.799563e-03 8.741956e-03 8.590694e-03 8.364520e-03 8.080533e-03 7.753639e-03 7.396476e-03 7.019591e-03 6.631716e-03 6.240052e-03 5.850503e-03 5.467860e-03 5.095946e-03 4.737722e-03 4.395388e-03 4.070479e-03 3.763949e-03 3.476262e-03 3.207477e-03 2.957329e-03 2.725298e-03 2.510681e-03 2.312638e-03 2.130248e-03 1.962543e-03
-7.567316e-04 -8.134240e-04 -8.742051e-04 -9.391583e-04 -1.008277e-03 -1.081427e-03 -1.158296e-03 -1.238326e-03 -1.320638e-03 -1.403925e-03 -1.486337e-03 -1.565340e-03 -1.637561e-03 -1.698634e-03 -1.743055e-03 -1.764078e-03 -1.753692e-03 -1.702727e-03 -1.601134e-03 -1.438509e-03 -1.204875e-03 -8.917339e-04 -4.933122e-04 -7.883640e-06 5.610473e-04 1.203945e-03 1.905073e-03 2.643121e-03 3.392673e-03 4.126349e-03 4.817323e-03 5.441780e-03 5.980914e-03 6.422140e-03 6.759408e-03 6.992700e-03 7.126933e-03 7.170566e-03 7.134208e-03 7.029405e-03 6.867740e-03 6.660229e-03 6.416986e-03 6.147070e-03 5.858455e-03 5.558061e-03 5.251808e-03 4.944690e-03 4.640841e-03 4.343608e-03 4.055626e-03 3.778892e-03 3.514844e-03 3.264434e-03 3.028208e-03 2.806371e-03 2.598857e-03 2.405388e-03 2.225522e-03 2.058702e-03 1.904287e-03
-7.555750e-04 -8.086720e-04 -8.650659e-04 -9.247090e-04 -9.874524e-04 -1.053011e-03 -1.120920e-03 -1.190483e-03 -1.260707e-03 -1.330226e-03 -1.397220e-03 -1.459321e-03 -1.513518e-03 -1.556076e-03 -1.582470e-03 -1.587362e-03 -1.564649e-03 -1.507599e-03 -1.409110e-03 -1.262115e-03 -1.060129e-03 -7.979372e-04 -4.723611e-04 -8.302485e-05 3.669952e-04 8.707700e-04 1.417483e-03 1.992843e-03 2.579937e-03 3.160462e-03 3.716153e-03 4.230218e-03 4.688556e-03 5.080605e-03 5.399733e-03 5.643178e-03 5.811630e-03 5.908582e-03 5.939580e-03 5.911503e-03 5.831935e-03 5.708673e-03 5.549359e-03 5.361241e-03 5.151020e-03 4.924755e-03 4.687829e-03 4.444933e-03 4.200083e-03 3.956643e-03 3.717370e-03 3.484463e-03 3.259617e-03 3.044084e-03 2.838730e-03 2.644095e-03 2.460448e-03 2.287839e-03 2.126138e-03 1.975083e-03 1.834310e-03
-7.483956e-04 -7.976271e-04 -8.494330e-04 -9.036674e-04 -9.600807e-04 -1.018289e-03 -1.077739e-03 -1.137666e-03 -1.197045e-03 -1.254541e-03 -1.308446e-03 -1.356625e-03 -1.396462e-03 -1.424823e-03 -1.438035e-03 -1.431905e-03 -1.401794e-03 -1.342745e-03 -1.249703e-03 -1.117812e-03 -9.428000e-04 -7.214261e-04 -4.519609e-04 -1.346421e-04 2.279582e-04 6.307251e-04 1.066012e-03 1.523909e-03 1.992757e-03 2.459885e-03 2.912454e-03 3.338330e-03 3.726863e-03 4.069475e-03 4.360012e-03 4.594847e-03 4.772758e-03 4.894640e-03 4.963117e-03 4.982120e-03 4.956473e-03 4.891526e-03 4.792854e-03 4.666015e-03 4.516368e-03 4.348942e-03 4.168354e-03 3.978751e-03 3.783786e-03 3.586614e-03 3.389902e-03 3.195859e-03 3.006266e-03 2.822517e-03 2.645663e-03 2.476458e-03 2.315400e-03 2.162771e-03 2.018681e-03 1.883095e-03 1.755867e-03
-7.360301e-04 -7.812535e-04 -8.284054e-04 -8.772705e-04 -9.275320e-04 -9.787480e-04 -1.030323e-03 -1.081475e-03 -1.131204e-03 -1.178250e-03 -1.221062e-03 -1.257760e-03 -1.286111e-03 -1.303517e-03 -1.307018e-03 -1.293333e-03 -1.258932e-03 -1.200152e-03 -1.113368e-03 -9.952104e-04 -8.428360e-04 -6.542212e-04 -4.284676e-04 -1.660807e-04 1.308163e-04 4.583718e-04 8.110288e-04 1.181702e-03 1.562103e-03 1.943188e-03 2.315692e-03 2.670672e-03 3.000018e-03 3.296869e-03 3.555899e-03 3.773459e-03 3.947579e-03 4.077859e-03 4.165272e-03 4.211924e-03 4.220787e-03 4.195446e-03 4.139869e-03 4.058197e-03 3.954585e-03 3.833067e-03 3.697456e-03 3.551274e-03 3.397707e-03 3.239576e-03 3.079339e-03 2.919085e-03 2.760562e-03 2.605191e-03 2.454103e-03 2.308166e-03 2.168018e-03 2.034100e-03 1.906686e-03 1.785910e-03 1.671793e-03
-7.193171e-04 -7.604991e-04 -8.030436e-04 -8.466888e-04 -8.910788e-04 -9.357439e-04 -9.800795e-04 -1.023322e-03 -1.064526e-03 -1.102538e-03 -1.135977e-03 -1.163214e-03 -1.182365e-03 -1.191294e-03 -1.187628e-03 -1.168802e-03 -1.132125e-03 -1.074880e-03 -9.944508e-04 -8.884840e-04 -7.550760e-04 -5.929711e-04 -4.017583e-04 -1.820453e-04 6.441351e-05 3.346576e-04 6.245450e-04 9.288721e-04 1.241585e-03 1.556067e-03 1.865479e-03 2.163118e-03 2.442760e-03 2.698954e-03 2.927241e-03 3.124297e-03 3.287975e-03 3.417287e-03 3.512303e-03 3.574020e-03 3.604196e-03 3.605178e-03 3.579733e-03 3.530891e-03 3.461803e-03 3.375628e-03 3.275438e-03 3.164143e-03 3.044438e-03 2.918771e-03 2.789321e-03 2.657995e-03 2.526424e-03 2.395983e-03 2.267804e-03 2.142796e-03 2.021668e-03 1.904955e-03 1.793038e-03 1.686169e-03 1.584489e-03
-6.990672e-04 -7.362643e-04 -7.743370e-04 -8.129963e-04 -8.518677e-04 -8.904767e-04 -9.282327e-04 -9.644122e-04 -9.981431e-04 -1.028390e-03 -1.053940e-03 -1.073401e-03 -1.085195e-03 -1.087575e-03 -1.078645e-03 -1.056401e-03 -1.018790e-03 -9.637862e-04 -8.894954e-04 -7.942673e-04 -6.768284e-04 -5.364161e-04 -3.729086e-04 -1.869354e-04 2.004540e-05 2.457146e-04 4.869154e-04 7.397365e-04 9.996541e-04 1.261723e-03 1.520800e-03 1.771791e-03 2.009878e-03 2.230735e-03 2.430695e-03 2.606868e-03 2.757200e-03 2.880487e-03 2.976333e-03 3.045076e-03 3.087694e-03 3.105680e-03 3.100933e-03 3.075634e-03 3.032137e-03 2.972876e-03 2.900280e-03 2.816708e-03 2.724394e-03 2.625409e-03 2.521642e-03 2.414778e-03 2.306297e-03 2.197475e-03 2.089394e-03 1.982953e-03 1.878881e-03 1.777757e-03 1.680025e-03 1.586011e-03 1.495939e-03
-6.760393e-04 -7.093794e-04 -7.431838e-04 -7.771511e-04 -8.109045e-04 -8.439804e-04 -8.758176e-04 -9.057455e-04 -9.329744e-04 -9.565869e-04 -9.755330e-04 -9.886294e-04 -9.945658e-04 -9.919186e-04 -9.791752e-04 -9.547703e-04 -9.171348e-04 -8.647582e-04 -7.962639e-04 -7.104947e-04 -6.066051e-04 -4.841539e-04 -3.431906e-04 -1.843262e-04 -8.781772e-06 1.815961e-04 3.843549e-04 5.964965e-04 8.145747e-04 1.034826e-03 1.253324e-03 1.466144e-03 1.669529e-03 1.860043e-03 2.034692e-03 2.191025e-03 2.327193e-03 2.441968e-03 2.534739e-03 2.605467e-03 2.654633e-03 2.683155e-03 2.692311e-03 2.683651e-03 2.658913e-03 2.619951e-03 2.568660e-03 2.506925e-03 2.436568e-03 2.359316e-03 2.276770e-03 2.190393e-03 2.101492e-03 2.011223e-03 1.920584e-03 1.830431e-03 1.741478e-03 1.654311e-03 1.569402e-03 1.487118e-03 1.407735e-03
-6.509266e-04 -6.805907e-04 -7.103784e-04 -7.399871e-04 -7.690490e-04 -7.971227e-04 -8.236855e-04 -8.481262e-04 -8.697396e-04 -8.877224e-04 -9.011724e-04 -9.090923e-04 -9.103979e-04 -9.039336e-04 -8.884947e-04 -8.628590e-04 -8.258270e-04 -7.762707e-04 -7.131904e-04 -6.357777e-04 -5.434809e-04 -4.360695e-04 -3.136918e-04 -1.769218e-04 -2.678826e-05 1.352177e-04 3.071601e-04 4.867022e-04 6.711760e-04 8.576734e-04 1.043155e-03 1.224565e-03 1.398950e-03 1.563571e-03 1.715993e-03 1.854166e-03 1.976474e-03 2.081764e-03 2.169346e-03 2.238979e-03 2.290835e-03 2.325447e-03 2.343657e-03 2.346553e-03 2.335406e-03 2.311613e-03 2.276640e-03 2.231977e-03 2.179094e-03 2.119411e-03 2.054269e-03 1.984914e-03 1.912484e-03 1.838000e-03 1.762367e-03 1.686373e-03 1.610693e-03 1.535899e-03 1.462463e-03 1.390770e-03 1.321122e-03
-6.243470e-04 -6.505538e-04 -6.766074e-04 -7.022127e-04 -7.270185e-04 -7.506124e-04 -7.725155e-04 -7.921780e-04 -8.089770e-04 -8.222153e-04 -8.311234e-04 -8.348651e-04 -8.325472e-04 -8.232338e-04 -8.059671e-04 -7.797936e-04 -7.437964e-04 -6.971338e-04 -6.390819e-04 -5.690809e-04 -4.867819e-04 -3.920923e-04 -2.852143e-04 -1.666763e-04 -3.735000e-05 1.015468e-04 2.484650e-04 4.015579e-04 5.587310e-04 7.177079e-04 8.761076e-04 1.031528e-03 1.181629e-03 1.324217e-03 1.457314e-03 1.579216e-03 1.688537e-03 1.784236e-03 1.865623e-03 1.932359e-03 1.984427e-03 2.022108e-03 2.045942e-03 2.056680e-03 2.055244e-03 2.042678e-03 2.020109e-03 1.988705e-03 1.949641e-03 1.904075e-03 1.853117e-03 1.797817e-03 1.739150e-03 1.678006e-03 1.615189e-03 1.551410e-03 1.487294e-03 1.423378e-03 1.360121e-03 1.297904e-03 1.237041e-03
-5.968404e-04 -6.198324e-04 -6.424516e-04 -6.644158e-04 -6.853959e-04 -7.050123e-04 -7.228316e-04 -7.383646e-04 -7.510660e-04 -7.603349e-04 -7.655189e-04 -7.659202e-04 -7.608051e-04 -7.494178e-04 -7.309980e-04 -7.048024e-04 -6.701313e-04 -6.263578e-04 -5.729608e-04 -5.095585e-04 -4.359425e-04 -3.521091e-04 -2.582865e-04 -1.549546e-04 -4.285539e-05 7.700696e-05 2.033792e-04 3.347841e-04 4.695580e-04 6.058988e-04 7.419218e-04 8.757207e-04 1.005430e-03 1.129283e-03 1.245669e-03 1.353177e-03 1.450631e-03 1.537113e-03 1.611973e-03 1.674831e-03 1.725567e-03 1.764295e-03 1.791346e-03 1.807232e-03 1.812614e-03 1.808269e-03 1.795055e-03 1.773883e-03 1.745688e-03 1.711405e-03 1.671947e-03 1.628190e-03 1.580961e-03 1.531027e-03 1.479091e-03 1.425786e-03 1.371677e-03 1.317262e-03 1.262970e-03 1.209171e-03 1.156174e-03
-5.688688e-04 -5.889012e-04 -6.083909e-04 -6.270726e-04 -6.446424e-04 -6.607547e-04 -6.750217e-04 -6.870117e-04 -6.962507e-04 -7.022242e-04 -7.043818e-04 -7.021431e-04 -6.949075e-04 -6.820660e-04 -6.630158e-04 -6.371789e-04 -6.040222e-04 -5.630810e-04 -5.139835e-04 -4.564755e-04 -3.904455e-04 -3.159464e-04 -2.332142e-04 -1.426810e-04 -4.498076e-05 5.905205e-05 1.683937e-04 2.818507e-04 3.980879e-04 5.156644e-04 6.330745e-04 7.487929e-04 8.613206e-04 9.692298e-04 1.071205e-03 1.166077e-03 1.252853e-03 1.330736e-03 1.399133e-03 1.457663e-03 1.506145e-03 1.544592e-03 1.573193e-03 1.592287e-03 1.602343e-03 1.603934e-03 1.597714e-03 1.584388e-03 1.564696e-03 1.539389e-03 1.509213e-03 1.474895e-03 1.437129e-03 1.396571e-03 1.353828e-03 1.309458e-03 1.263964e-03 1.217798e-03 1.171357e-03 1.124988e-03 1.078989e-03
-5.408199e-04 -5.581514e-04 -5.748130e-04 -5.905589e-04 -6.051112e-04 -6.181589e-04 -6.293575e-04 -6.383291e-04 -6.446642e-04 -6.479244e-04 -6.476471e-04 -6.433516e-04 -6.345473e-04 -6.207445e-04 -6.014666e-04 -5.762648e-04 -5.447345e-04 -5.065333e-04 -4.613995e-04 -4.091708e-04 -3.498016e-04 -2.833795e-04 -2.101371e-04 -1.304611e-04 -4.489487e-05 4.586368e-05 1.409715e-04 2.394557e-04 3.402352e-04 4.421475e-04 5.439798e-04 6.445023e-04 7.425027e-04 8.368201e-04 9.263763e-04 1.010203e-03 1.087463e-03 1.157470e-03 1.219696e-03 1.273773e-03 1.319498e-03 1.356819e-03 1.385827e-03 1.406742e-03 1.419892e-03 1.425698e-03 1.424651e-03 1.417299e-03 1.404224e-03 1.386026e-03 1.363312e-03 1.336682e-03 1.306715e-03 1.273968e-03 1.238961e-03 1.202179e-03 1.164069e-03 1.125032e-03 1.085431e-03 1.045587e-03 1.005779e-03
-5.130126e-04 -5.278984e-04 -5.420233e-04 -5.551618e-04 -5.670626e-04 -5.774480e-04 -5.860142e-04 -5.924323e-04 -5.963503e-04 -5.973965e-04 -5.951834e-04 -5.893139e-04 -5.793885e-04 -5.650143e-04 -5.458151e-04 -5.214438e-04 -4.915946e-04 -4.560176e-04 -4.145323e-04 -3.670418e-04 -3.135454e-04 -2.541501e-04 -1.890786e-04 -1.186753e-04 -4.340723e-05 3.613862e-05 1.192631e-04 2.051670e-04 2.929680e-04 3.817209e-04 4.704410e-04 5.581299e-04 6.438008e-04 7.265050e-04 8.053552e-04 8.795472e-04 9.483773e-04 1.011256e-03 1.067717e-03 1.117421e-03 1.160157e-03 1.195837e-03 1.224488e-03 1.246244e-03 1.261331e-03 1.270055e-03 1.272786e-03 1.269944e-03 1.261987e-03 1.249394e-03 1.232657e-03 1.212267e-03 1.188707e-03 1.162445e-03 1.133925e-03 1.103567e-03 1.071759e-03 1.038860e-03 1.005195e-03 9.710540e-04 9.366984e-04
-4.857035e-04 -4.983899e-04 -5.102545e-04 -5.210925e-04 -5.306783e-04 -5.387656e-04 -5.450881e-04 -5.493612e-04 -5.512837e-04 -5.505414e-04 -5.468108e-04 -5.397650e-04 -5.290793e-04 -5.144391e-04 -4.955486e-04 -4.721400e-04 -4.439839e-04 -4.109003e-04 -3.727683e-04 -3.295377e-04 -2.812373e-04 -2.279833e-04 -1.699849e-04 -1.075478e-04 -4.107445e-05 2.893912e-05 1.019094e-04 1.771756e-04 2.540122e-04 3.316451e-04 4.092696e-04 4.860692e-04 5.612363e-04 6.339911e-04 7.036007e-04 7.693953e-04 8.307824e-04 8.872577e-04 9.384130e-04 9.839404e-04 1.023633e-03 1.057384e-03 1.085179e-03 1.107092e-03 1.123275e-03 1.133948e-03 1.139387e-03 1.139916e-03 1.135893e-03 1.127698e-03 1.115729e-03 1.100388e-03 1.082075e-03 1.061182e-03 1.038086e-03 1.013148e-03 9.867054e-04 9.590722e-04 9.305377e-04 9.013651e-04 8.717917e-04
-4.590937e-04 -4.698146e-04 -4.796776e-04 -4.884979e-04 -4.960745e-04 -5.021902e-04 -5.066130e-04 -5.090974e-04 -5.093867e-04 -5.072164e-04 -5.023172e-04 -4.944204e-04 -4.832628e-04 -4.685935e-04 -4.501803e-04 -4.278179e-04 -4.013357e-04 -3.706060e-04 -3.355522e-04 -2.961565e-04 -2.524666e-04 -2.046013e-04 -1.527545e-04 -9.719678e-05 -3.827567e-05 2.358770e-05 8.790381e-05 1.541227e-04 2.216441e-04 2.898299e-04 3.580179e-04 4.255367e-04 4.917211e-04 5.559271e-04 6.175467e-04 6.760202e-04 7.308479e-04 7.815990e-04 8.279179e-04 8.695283e-04 9.062346e-04 9.379211e-04 9.645487e-04 9.861500e-04 1.002823e-03 1.014725e-03 1.022059e-03 1.025075e-03 1.024050e-03 1.019287e-03 1.011107e-03 9.998378e-04 9.858097e-04 9.693502e-04 9.507786e-04 9.304021e-04 9.085126e-04 8.853847e-04 8.612735e-04 8.364144e-04 8.110217e-04
-4.333364e-04 -4.423108e-04 -4.504110e-04 -4.574717e-04 -4.633145e-04 -4.677490e-04 -4.705739e-04 -4.715782e-04 -4.705441e-04 -4.672493e-04 -4.614704e-04 -4.529870e-04 -4.415865e-04 -4.270691e-04 -4.092534e-04 -3.879831e-04 -3.631326e-04 -3.346139e-04 -3.023823e-04 -2.664428e-04 -2.268543e-04 -1.837337e-04 -1.372590e-04 -8.766956e-05 -3.526595e-05 1.959292e-05 7.649427e-05 1.349778e-04 1.945441e-04 2.546637e-04 3.147887e-04 3.743634e-04 4.328372e-04 4.896755e-04 5.443715e-04 5.964562e-04 6.455073e-04 6.911565e-04 7.330950e-04 7.710769e-04 8.049210e-04 8.345106e-04 8.597915e-04 8.807685e-04 8.975012e-04 9.100982e-04 9.187112e-04 9.235278e-04 9.247655e-04 9.226647e-04 9.174821e-04 9.094853e-04 8.989467e-04 8.861392e-04 8.713316e-04 8.547855e-04 8.367519e-04 8.174691e-04 7.971614e-04 7.760373e-04 7.542892e-04
