1.370248e-04 1.399215e-04 1.428710e-04 1.458548e-04 1.488466e-04 1.518102e-04 1.546985e-04 1.574511e-04 1.599931e-04 1.622329e-04 1.640613e-04 1.653501e-04 1.659513e-04 1.656970e-04 1.644005e-04 1.618571e-04 1.578471e-04 1.521390e-04 1.444945e-04 1.346742e-04 1.224443e-04 1.075849e-04 8.989769e-05 6.921545e-05 4.541056e-05 1.840351e-05 -1.182951e-05 -4.525034e-05 -8.175432e-05 -1.211678e-04 -1.632480e-04 -2.076856e-04 -2.541093e-04 -3.020933e-04 -3.511668e-04 -4.008251e-04 -4.505421e-04 -4.997834e-04 -5.480198e-04 -5.947401e-04 -6.394632e-04 -6.817483e-04 -7.212046e-04 -7.574971e-04 -7.903522e-04 -8.195598e-04 -8.449738e-04 -8.665110e-04 -8.841481e-04 -8.979171e-04 -9.078999e-04 -9.142227e-04 -9.170484e-04 -9.165711e-04 -9.130082e-04 -9.065948e-04 -8.975775e-04 -8.862089e-04 -8.727427e-04 -8.574297e-04 -8.405143e-04
1.317010e-04 1.343187e-04 1.370140e-04 1.397752e-04 1.425830e-04 1.454079e-04 1.482086e-04 1.509295e-04 1.534986e-04 1.558250e-04 1.577971e-04 1.592805e-04 1.601166e-04 1.601224e-04 1.590899e-04 1.567879e-04 1.529639e-04 1.473484e-04 1.396597e-04 1.296107e-04 1.169174e-04 1.013080e-04 8.253375e-05 6.037968e-05 3.467630e-05 5.310399e-06 -2.776491e-05 -6.452179e-05 -1.048514e-04 -1.485601e-04 -1.953692e-04 -2.449174e-04 -2.967666e-04 -3.504114e-04 -4.052904e-04 -4.608013e-04 -5.163159e-04 -5.711972e-04 -6.248162e-04 -6.765686e-04 -7.258890e-04 -7.722647e-04 -8.152457e-04 -8.544532e-04 -8.895848e-04 -9.204167e-04 -9.468036e-04 -9.686765e-04 -9.860378e-04 -9.989551e-04 -1.007554e-03 -1.012011e-03 -1.012543e-03 -1.009399e-03 -1.002855e-03 -9.932019e-04 -9.807400e-04 -9.657736e-04 -9.486044e-04 -9.295270e-04 -9.088251e-04
1.244053e-04 1.265621e-04 1.288138e-04 1.311577e-04 1.335834e-04 1.360706e-04 1.385867e-04 1.410841e-04 1.434971e-04 1.457388e-04 1.476984e-04 1.492383e-04 1.501918e-04 1.503617e-04 1.495196e-04 1.474065e-04 1.437349e-04 1.381926e-04 1.304484e-04 1.201599e-04 1.069830e-04 9.058367e-05 7.065048e-05 4.690912e-05 1.913663e-05 -1.282423e-05 -4.905183e-05 -8.953433e-05 -1.341610e-04 -1.827171e-04 -2.348821e-04 -2.902334e-04 -3.482527e-04 -4.083378e-04 -4.698178e-04 -5.319710e-04 -5.940453e-04 -6.552791e-04 -7.149236e-04 -7.722625e-04 -8.266314e-04 -8.774332e-04 -9.241515e-04 -9.663596e-04 -1.003726e-03 -1.036018e-03 -1.063098e-03 -1.084920e-03 -1.101525e-03 -1.113028e-03 -1.119615e-03 -1.121524e-03 -1.119042e-03 -1.112488e-03 -1.102206e-03 -1.088554e-03 -1.071899e-03 -1.052604e-03 -1.031026e-03 -1.007509e-03 -9.823796e-04
1.148655e-04 1.163328e-04 1.179001e-04 1.195751e-04 1.213585e-04 1.232422e-04 1.252056e-04 1.272127e-04 1.292083e-04 1.311139e-04 1.328240e-04 1.342019e-04 1.350765e-04 1.352396e-04 1.344438e-04 1.324026e-04 1.287917e-04 1.232523e-04 1.153977e-04 1.048216e-04 9.110940e-05 7.385200e-05 5.266189e-05 2.719078e-05 -2.851871e-06 -3.768035e-05 -7.741526e-05 -1.220683e-04 -1.715305e-04 -2.255645e-04 -2.838022e-04 -3.457479e-04 -4.107868e-04 -4.781998e-04 -5.471822e-04 -6.168672e-04 -6.863514e-04 -7.547229e-04 -8.210877e-04 -8.845965e-04 -9.444676e-04 -1.000007e-03 -1.050623e-03 -1.095839e-03 -1.135297e-03 -1.168760e-03 -1.196109e-03 -1.217335e-03 -1.232533e-03 -1.241885e-03 -1.245651e-03 -1.244153e-03 -1.237762e-03 -1.226884e-03 -1.211947e-03 -1.193391e-03 -1.171656e-03 -1.147176e-03 -1.120370e-03 -1.091637e-03 -1.061352e-03
1.028003e-04 1.032960e-04 1.038775e-04 1.045641e-04 1.053702e-04 1.063023e-04 1.073557e-04 1.085103e-04 1.097263e-04 1.109392e-04 1.120543e-04 1.129420e-04 1.134321e-04 1.133100e-04 1.123130e-04 1.101290e-04 1.063964e-04 1.007073e-04 9.261381e-05 8.163701e-05 6.728029e-05 4.904570e-05 2.645356e-05 -9.354431e-07 -3.349660e-05 -7.151720e-05 -1.151736e-04 -1.645108e-04 -2.194266e-04 -2.796602e-04 -3.447887e-04 -4.142299e-04 -4.872530e-04 -5.629968e-04 -6.404939e-04 -7.187006e-04 -7.965301e-04 -8.728875e-04 -9.467051e-04 -1.016975e-03 -1.082778e-03 -1.143309e-03 -1.197894e-03 -1.246004e-03 -1.287260e-03 -1.321431e-03 -1.348432e-03 -1.368309e-03 -1.381232e-03 -1.387472e-03 -1.387386e-03 -1.381402e-03 -1.369996e-03 -1.353680e-03 -1.332984e-03 -1.308443e-03 -1.280584e-03 -1.249921e-03 -1.216943e-03 -1.182108e-03 -1.145844e-03
8.792868e-05 8.710984e-05 8.633399e-05 8.563332e-05 8.503743e-05 8.457034e-05 8.424670e-05 8.406713e-05 8.401293e-05 8.403992e-05 8.407184e-05 8.399331e-05 8.364291e-05 8.280668e-05 8.121266e-05 7.852719e-05 7.435351e-05 6.823361e-05 5.965383e-05 4.805480e-05 3.284619e-05 1.342604e-05 -1.079534e-05 -4.036789e-05 -7.577180e-05 -1.173865e-04 -1.654606e-04 -2.200847e-04 -2.811696e-04 -3.484308e-04 -4.213825e-04 -4.993398e-04 -5.814326e-04 -6.666276e-04 -7.537598e-04 -8.415704e-04 -9.287500e-04 -1.013983e-03 -1.095994e-03 -1.173587e-03 -1.245683e-03 -1.311352e-03 -1.369830e-03 -1.420539e-03 -1.463086e-03 -1.497264e-03 -1.523041e-03 -1.540544e-03 -1.550044e-03 -1.551929e-03 -1.546685e-03 -1.534868e-03 -1.517088e-03 -1.493984e-03 -1.466206e-03 -1.434400e-03 -1.399197e-03 -1.361196e-03 -1.320965e-03 -1.279026e-03 -1.235861e-03
6.998194e-05 6.743777e-05 6.485408e-05 6.227577e-05 5.974859e-05 5.731607e-05 5.501555e-05 5.287300e-05 5.089689e-05 4.907087e-05 4.734554e-05 4.562940e-05 4.377960e-05 4.159272e-05 3.879649e-05 3.504327e-05 2.990612e-05 2.287864e-05 1.337945e-05 7.622460e-07 -1.566801e-05 -3.663254e-05 -6.285001e-05 -9.500256e-05 -1.336979e-04 -1.794295e-04 -2.325374e-04 -2.931721e-04 -3.612654e-04 -4.365086e-04 -5.183432e-04 -6.059634e-04 -6.983316e-04 -7.942069e-04 -8.921852e-04 -9.907480e-04 -1.088317e-03 -1.183314e-03 -1.274213e-03 -1.359600e-03 -1.438214e-03 -1.508982e-03 -1.571051e-03 -1.623797e-03 -1.666829e-03 -1.699986e-03 -1.723319e-03 -1.737069e-03 -1.741643e-03 -1.737582e-03 -1.725531e-03 -1.706214e-03 -1.680399e-03 -1.648878e-03 -1.612444e-03 -1.571872e-03 -1.527905e-03 -1.481241e-03 -1.432531e-03 -1.382365e-03 -1.331277e-03
4.871967e-05 4.396649e-05 3.903734e-05 3.398825e-05 2.888055e-05 2.377805e-05 1.874303e-05 1.383081e-05 9.082910e-06 4.518566e-06 1.247983e-07 -4.154818e-06 -8.432300e-06 -1.288770e-05 -1.778104e-05 -2.346259e-05 -3.038039e-05 -3.908345e-05 -5.021928e-05 -6.452453e-05 -8.280763e-05 -1.059230e-04 -1.347367e-04 -1.700850e-04 -2.127266e-04 -2.632923e-04 -3.222338e-04 -3.897771e-04 -4.658823e-04 -5.502157e-04 -6.421346e-04 -7.406899e-04 -8.446444e-04 -9.525087e-04 -1.062592e-03 -1.173065e-03 -1.282029e-03 -1.387592e-03 -1.487939e-03 -1.581400e-03 -1.666508e-03 -1.742041e-03 -1.807053e-03 -1.860888e-03 -1.903183e-03 -1.933854e-03 -1.953072e-03 -1.961235e-03 -1.958931e-03 -1.946898e-03 -1.925983e-03 -1.897113e-03 -1.861248e-03 -1.819364e-03 -1.772416e-03 -1.721326e-03 -1.666963e-03 -1.610131e-03 -1.551566e-03 -1.491927e-03 -1.431798e-03
2.395047e-05 1.642866e-05 8.523621e-06 2.985765e-07 -8.172427e-06 -1.680678e-05 -2.551697e-05 -3.421599e-05 -4.282461e-05 -5.128080e-05 -5.955135e-05 -6.764549e-05 -7.563018e-05 -8.364648e-05 -9.192599e-05 -1.008060e-04 -1.107417e-04 -1.223138e-04 -1.362294e-04 -1.533141e-04 -1.744940e-04 -2.007665e-04 -2.331606e-04 -2.726852e-04 -3.202714e-04 -3.767077e-04 -4.425755e-04 -5.181885e-04 -6.035406e-04 -6.982678e-04 -8.016286e-04 -9.125042e-04 -1.029422e-03 -1.150598e-03 -1.274005e-03 -1.397446e-03 -1.518648e-03 -1.635355e-03 -1.745419e-03 -1.846883e-03 -1.938053e-03 -2.017550e-03 -2.084346e-03 -2.137777e-03 -2.177540e-03 -2.203671e-03 -2.216515e-03 -2.216679e-03 -2.204986e-03 -2.182425e-03 -2.150095e-03 -2.109166e-03 -2.060831e-03 -2.006275e-03 -1.946643e-03 -1.883016e-03 -1.816400e-03 -1.747709e-03 -1.677765e-03 -1.607292e-03 -1.536918e-03
-4.442894e-06 -1.536793e-05 -2.697395e-05 -3.919765e-05 -5.195848e-05 -6.515991e-05 -7.869227e-05 -9.243760e-05 -1.062770e-04 -1.201005e-04 -1.338203e-04 -1.473867e-04 -1.608066e-04 -1.741648e-04 -1.876453e-04 -2.015529e-04 -2.163311e-04 -2.325761e-04 -2.510417e-04 -2.726344e-04 -2.983954e-04 -3.294679e-04 -3.670503e-04 -4.123353e-04 -4.664371e-04 -5.303125e-04 -6.046797e-04 -6.899416e-04 -7.861201e-04 -8.928077e-04 -1.009141e-03 -1.133802e-03 -1.265042e-03 -1.400740e-03 -1.538479e-03 -1.675647e-03 -1.809545e-03 -1.937510e-03 -2.057021e-03 -2.165810e-03 -2.261946e-03 -2.343898e-03 -2.410575e-03 -2.461340e-03 -2.495996e-03 -2.514761e-03 -2.518214e-03 -2.507240e-03 -2.482963e-03 -2.446681e-03 -2.399803e-03 -2.343790e-03 -2.280105e-03 -2.210173e-03 -2.135348e-03 -2.056885e-03 -1.975932e-03 -1.893513e-03 -1.810529e-03 -1.727760e-03 -1.645867e-03
-3.647354e-05 -5.150507e-05 -6.762774e-05 -8.478955e-05 -1.029143e-04 -1.219013e-04 -1.416268e-04 -1.619477e-04 -1.827082e-04 -2.037497e-04 -2.249252e-04 -2.461169e-04 -2.672588e-04 -2.883622e-04 -3.095441e-04 -3.310548e-04 -3.533047e-04 -3.768844e-04 -4.025762e-04 -4.313521e-04 -4.643567e-04 -5.028700e-04 -5.482527e-04 -6.018724e-04 -6.650161e-04 -7.387936e-04 -8.240388e-04 -9.212170e-04 -1.030346e-03 -1.150940e-03 -1.281975e-03 -1.421896e-03 -1.568642e-03 -1.719718e-03 -1.872287e-03 -2.023289e-03 -2.169571e-03 -2.308038e-03 -2.435784e-03 -2.550222e-03 -2.649189e-03 -2.731023e-03 -2.794606e-03 -2.839377e-03 -2.865312e-03 -2.872877e-03 -2.862965e-03 -2.836815e-03 -2.795929e-03 -2.741984e-03 -2.676756e-03 -2.602048e-03 -2.519631e-03 -2.431198e-03 -2.338324e-03 -2.242449e-03 -2.144859e-03 -2.046681e-03 -1.948884e-03 -1.852286e-03 -1.757561e-03
-7.201668e-05 -9.191290e-05 -1.134461e-04 -1.365923e-04 -1.612964e-04 -1.874701e-04 -2.149906e-04 -2.437030e-04 -2.734251e-04 -3.039564e-04 -3.350928e-04 -3.666464e-04 -3.984708e-04 -4.304922e-04 -4.627441e-04 -4.954043e-04 -5.288296e-04 -5.635846e-04 -6.004601e-04 -6.404746e-04 -6.848553e-04 -7.349954e-04 -7.923869e-04 -8.585316e-04 -9.348345e-04 -1.022489e-03 -1.122363e-03 -1.234893e-03 -1.360001e-03 -1.497036e-03 -1.644746e-03 -1.801286e-03 -1.964260e-03 -2.130793e-03 -2.297639e-03 -2.461313e-03 -2.618240e-03 -2.764923e-03 -2.898100e-03 -3.014899e-03 -3.112961e-03 -3.190536e-03 -3.246531e-03 -3.280529e-03 -3.292749e-03 -3.283992e-03 -3.255551e-03 -3.209105e-03 -3.146612e-03 -3.070202e-03 -2.982078e-03 -2.884432e-03 -2.779375e-03 -2.668886e-03 -2.554773e-03 -2.438655e-03 -2.321945e-03 -2.205854e-03 -2.091397e-03 -1.979405e-03 -1.870540e-03
-1.107732e-04 -1.363242e-04 -1.642167e-04 -1.944777e-04 -2.270976e-04 -2.620249e-04 -2.991629e-04 -3.383679e-04 -3.794525e-04 -4.221928e-04 -4.663419e-04 -5.116509e-04 -5.578977e-04 -6.049233e-04 -6.526741e-04 -7.012487e-04 -7.509425e-04 -8.022861e-04 -8.560696e-04 -9.133451e-04 -9.754021e-04 -1.043710e-03 -1.119833e-03 -1.205311e-03 -1.301535e-03 -1.409608e-03 -1.530223e-03 -1.663566e-03 -1.809240e-03 -1.966236e-03 -2.132934e-03 -2.307128e-03 -2.486085e-03 -2.666618e-03 -2.845194e-03 -3.018051e-03 -3.181349e-03 -3.331334e-03 -3.464514e-03 -3.577834e-03 -3.668823e-03 -3.735715e-03 -3.777512e-03 -3.794006e-03 -3.785742e-03 -3.753935e-03 -3.700362e-03 -3.627228e-03 -3.537026e-03 -3.432403e-03 -3.316043e-03 -3.190565e-03 -3.058441e-03 -2.921944e-03 -2.783109e-03 -2.643713e-03 -2.505275e-03 -2.369057e-03 -2.236086e-03 -2.107168e-03 -1.982915e-03
-1.522335e-04 -1.842271e-04 -2.194453e-04 -2.579968e-04 -2.999499e-04 -3.453249e-04 -3.940867e-04 -4.461396e-04 -5.013269e-04 -5.594349e-04 -6.202050e-04 -6.833555e-04 -7.486128e-04 -8.157543e-04 -8.846602e-04 -9.553711e-04 -1.028146e-03 -1.103508e-03 -1.182276e-03 -1.265559e-03 -1.354714e-03 -1.451259e-03 -1.556738e-03 -1.672566e-03 -1.799851e-03 -1.939245e-03 -2.090820e-03 -2.254009e-03 -2.427608e-03 -2.609832e-03 -2.798394e-03 -2.990606e-03 -3.183456e-03 -3.373678e-03 -3.557798e-03 -3.732194e-03 -3.893180e-03 -4.037125e-03 -4.160613e-03 -4.260628e-03 -4.334738e-03 -4.381255e-03 -4.399340e-03 -4.389048e-03 -4.351294e-03 -4.287767e-03 -4.200790e-03 -4.093154e-03 -3.967945e-03 -3.828379e-03 -3.677655e-03 -3.518837e-03 -3.354762e-03 -3.187983e-03 -3.020734e-03 -2.854919e-03 -2.692114e-03 -2.533589e-03 -2.380329e-03 -2.233068e-03 -2.092320e-03
-1.956447e-04 -2.348193e-04 -2.782951e-04 -3.262993e-04 -3.790202e-04 -4.365953e-04 -4.991002e-04 -5.665389e-04 -6.388379e-04 -7.158474e-04 -7.973505e-04 -8.830849e-04 -9.727788e-04 -1.066202e-03 -1.163229e-03 -1.263916e-03 -1.368573e-03 -1.477822e-03 -1.592631e-03 -1.714289e-03 -1.844319e-03 -1.984320e-03 -2.135743e-03 -2.299624e-03 -2.476333e-03 -2.665372e-03 -2.865291e-03 -3.073741e-03 -3.287670e-03 -3.503609e-03 -3.717984e-03 -3.927381e-03 -4.128690e-03 -4.319118e-03 -4.496084e-03 -4.657070e-03 -4.799499e-03 -4.920686e-03 -5.017922e-03 -5.088647e-03 -5.130697e-03 -5.142551e-03 -5.123535e-03 -5.073928e-03 -4.994982e-03 -4.888833e-03 -4.758343e-03 -4.606899e-03 -4.438197e-03 -4.256031e-03 -4.064119e-03 -3.865958e-03 -3.664723e-03 -3.463209e-03 -3.263798e-03 -3.068456e-03 -2.878756e-03 -2.695904e-03 -2.520781e-03 -2.353984e-03 -2.195871e-03
-2.399868e-04 -2.869720e-04 -3.395327e-04 -3.980581e-04 -4.629067e-04 -5.343894e-04 -6.127546e-04 -6.981726e-04 -7.907249e-04 -8.904002e-04 -9.971008e-04 -1.110666e-03 -1.230912e-03 -1.357703e-03 -1.491027e-03 -1.631108e-03 -1.778502e-03 -1.934185e-03 -2.099579e-03 -2.276496e-03 -2.466963e-03 -2.672913e-03 -2.895753e-03 -3.135870e-03 -3.392172e-03 -3.661782e-03 -3.940006e-03 -4.220647e-03 -4.496643e-03 -4.760927e-03 -5.007296e-03 -5.231092e-03 -5.429502e-03 -5.601431e-03 -5.747008e-03 -5.866892e-03 -5.961614e-03 -6.031111e-03 -6.074579e-03 -6.090622e-03 -6.077627e-03 -6.034224e-03 -5.959704e-03 -5.854321e-03 -5.719410e-03 -5.557353e-03 -5.371409e-03 -5.165463e-03 -4.943755e-03 -4.710609e-03 -4.470214e-03 -4.226448e-03 -3.982761e-03 -3.742112e-03 -3.506949e-03 -3.279216e-03 -3.060389e-03 -2.851525e-03 -2.653317e-03 -2.466148e-03 -2.290151e-03
-2.839637e-04 -3.392093e-04 -4.014916e-04 -4.714108e-04 -5.495511e-04 -6.364620e-04 -7.326371e-04 -8.384934e-04 -9.543544e-04 -1.080440e-03 -1.216871e-03 -1.363695e-03 -1.520939e-03 -1.688702e-03 -1.867276e-03 -2.057308e-03 -2.259958e-03 -2.477042e-03 -2.711079e-03 -2.965192e-03 -3.242772e-03 -3.546880e-03 -3.879388e-03 -4.239964e-03 -4.625111e-03 -5.027533e-03 -5.436135e-03 -5.836823e-03 -6.214126e-03 -6.553339e-03 -6.842727e-03 -7.075206e-03 -7.249046e-03 -7.367426e-03 -7.436995e-03 -7.465895e-03 -7.461815e-03 -7.430560e-03 -7.375399e-03 -7.297186e-03 -7.195063e-03 -7.067419e-03 -6.912831e-03 -6.730764e-03 -6.521957e-03 -6.288494e-03 -6.033633e-03 -5.761485e-03 -5.476646e-03 -5.183836e-03 -4.887604e-03 -4.592102e-03 -4.300949e-03 -4.017157e-03 -3.743121e-03 -3.480647e-03 -3.231002e-03 -2.994986e-03 -2.773005e-03 -2.565143e-03 -2.371230e-03
-3.260162e-04 -3.897126e-04 -4.620650e-04 -5.439333e-04 -6.361866e-04 -7.396805e-04 -8.552320e-04 -9.835921e-04 -1.125420e-03 -1.281269e-03 -1.451584e-03 -1.636737e-03 -1.837096e-03 -2.053163e-03 -2.285767e-03 -2.536331e-03 -2.807164e-03 -3.101746e-03 -3.424874e-03 -3.782547e-03 -4.181427e-03 -4.627721e-03 -5.125481e-03 -5.674460e-03 -6.267937e-03 -6.891146e-03 -7.521029e-03 -8.127866e-03 -8.678875e-03 -9.143228e-03 -9.497323e-03 -9.728892e-03 -9.838737e-03 -9.839590e-03 -9.752497e-03 -9.601865e-03 -9.410586e-03 -9.196472e-03 -8.970596e-03 -8.737515e-03 -8.496830e-03 -8.245335e-03 -7.979094e-03 -7.695012e-03 -7.391727e-03 -7.069883e-03 -6.731935e-03 -6.381689e-03 -6.023748e-03 -5.662992e-03 -5.304147e-03 -4.951486e-03 -4.608644e-03 -4.278541e-03 -3.963375e-03 -3.664668e-03 -3.383348e-03 -3.119836e-03 -2.874141e-03 -2.645952e-03 -2.434715e-03
-3.643636e-04 -4.363608e-04 -5.187396e-04 -6.126644e-04 -7.193434e-04 -8.400033e-04 -9.758588e-04 -1.128077e-03 -1.297740e-03 -1.485822e-03 -1.693179e-03 -1.920590e-03 -2.168853e-03 -2.438989e-03 -2.732560e-03 -3.052130e-03 -3.401835e-03 -3.787998e-03 -4.219599e-03 -4.708338e-03 -5.267924e-03 -5.912208e-03 -6.651950e-03 -7.490340e-03 -8.418019e-03 -9.408945e-03 -1.041887e-02 -1.138799e-02 -1.224841e-02 -1.293532e-02 -1.339936e-02 -1.361657e-02 -1.359273e-02 -1.336085e-02 -1.297256e-02 -1.248634e-02 -1.195609e-02 -1.142299e-02 -1.091205e-02 -1.043294e-02 -9.983868e-03 -9.556381e-03 -9.139949e-03 -8.725208e-03 -8.305764e-03 -7.878724e-03 -7.444357e-03 -7.005300e-03 -6.565643e-03 -6.130097e-03 -5.703336e-03 -5.289565e-03 -4.892263e-03 -4.514087e-03 -4.156872e-03 -3.821701e-03 -3.509016e-03 -3.218730e-03 -2.950346e-03 -2.703063e-03 -2.475868e-03
-3.970791e-04 -4.768130e-04 -5.686847e-04 -6.741968e-04 -7.949395e-04 -9.325625e-04 -1.088736e-03 -1.265105e-03 -1.463234e-03 -1.684563e-03 -1.930379e-03 -2.201852e-03 -2.500157e-03 -2.826754e-03 -3.183898e-03 -3.575421e-03 -4.007823e-03 -4.491593e-03 -5.042513e-03 -5.682468e-03 -6.439004e-03 -7.342688e-03 -8.421435e-03 -9.691569e-03 -1.114666e-02 -1.274683e-02 -1.441268e-02 -1.602820e-02 -1.745506e-02 -1.855700e-02 -1.922826e-02 -1.941758e-02 -1.913946e-02 -1.846886e-02 -1.752126e-02 -1.642528e-02 -1.529670e-02 -1.422073e-02 -1.324567e-02 -1.238632e-02 -1.163343e-02 -1.096476e-02 -1.035463e-02 -9.780271e-03 -9.225026e-03 -8.678992e-03 -8.138144e-03 -7.602765e-03 -7.075792e-03 -6.561414e-03 -6.064034e-03 -5.587612e-03 -5.135306e-03 -4.709341e-03 -4.311025e-03 -3.940848e-03 -3.598623e-03 -3.283633e-03 -2.994770e-03 -2.730662e-03 -2.489771e-03
-4.222018e-04 -5.086393e-04 -6.089025e-04 -7.248493e-04 -8.584749e-04 -1.011880e-03 -1.187221e-03 -1.386643e-03 -1.612200e-03 -1.865764e-03 -2.148955e-03 -2.463130e-03 -2.809496e-03 -3.189452e-03 -3.605313e-03 -4.061555e-03 -4.566762e-03 -5.136276e-03 -5.795342e-03 -6.582024e-03 -7.548496e-03 -8.758591e-03 -1.027916e-02 -1.216349e-02 -1.442741e-02 -1.702282e-02 -1.981793e-02 -2.259559e-02 -2.507838e-02 -2.697994e-02 -2.807022e-02 -2.823329e-02 -2.749666e-02 -2.602081e-02 -2.405355e-02 -2.186690e-02 -1.969847e-02 -1.771437e-02 -1.599898e-02 -1.456665e-02 -1.338500e-02 -1.239942e-02 -1.155233e-02 -1.079478e-02 -1.009125e-02 -9.419635e-03 -8.768813e-03 -8.135355e-03 -7.520465e-03 -6.927583e-03 -6.360734e-03 -5.823542e-03 -5.318732e-03 -4.847970e-03 -4.411897e-03 -4.010278e-03 -3.642178e-03 -3.306146e-03 -3.000387e-03 -2.722895e-03 -2.471567e-03
-4.378827e-04 -5.294975e-04 -6.364424e-04 -7.609243e-04 -9.053396e-04 -1.072236e-03 -1.264246e-03 -1.483992e-03 -1.733951e-03 -2.016290e-03 -2.332697e-03 -2.684242e-03 -3.071378e-03 -3.494233e-03 -3.953456e-03 -4.451973e-03 -4.998076e-03 -5.610247e-03 -6.323778e-03 -7.198482e-03 -8.325370e-03 -9.828144e-03 -1.185348e-02 -1.454376e-02 -1.798951e-02 -2.216759e-02 -2.688401e-02 -3.175021e-02 -3.621985e-02 -3.969331e-02 -4.166553e-02 -4.186595e-02 -4.033502e-02 -3.740570e-02 -3.359929e-02 -2.947987e-02 -2.552322e-02 -2.204039e-02 -1.916554e-02 -1.689162e-02 -1.512636e-02 -1.374502e-02 -1.262742e-02 -1.167714e-02 -1.082683e-02 -1.003532e-02 -9.281235e-03 -8.556334e-03 -7.859887e-03 -7.194699e-03 -6.564559e-03 -5.972831e-03 -5.421804e-03 -4.912525e-03 -4.444888e-03 -4.017840e-03 -3.629619e-03 -3.277983e-03 -2.960404e-03 -2.674221e-03 -2.416757e-03
-4.425554e-04 -5.373469e-04 -6.486672e-04 -7.790393e-04 -9.312260e-04 -1.108183e-03 -1.312969e-03 -1.548605e-03 -1.817858e-03 -2.122956e-03 -2.465220e-03 -2.844674e-03 -3.259714e-03 -3.707073e-03 -4.182445e-03 -4.682441e-03 -5.208783e-03 -5.775933e-03 -6.423226e-03 -7.231701e-03 -8.343460e-03 -9.976964e-03 -1.242573e-02 -1.602299e-02 -2.105675e-02 -2.763605e-02 -3.554045e-02 -4.412069e-02 -5.232919e-02 -5.892095e-02 -6.278368e-02 -6.327560e-02 -6.042616e-02 -5.491030e-02 -4.781243e-02 -4.029082e-02 -3.328410e-02 -2.735658e-02 -2.269692e-02 -1.921828e-02 -1.668924e-02 -1.484294e-02 -1.344389e-02 -1.231536e-02 -1.134062e-02 -1.045152e-02 -9.613867e-03 -8.814384e-03 -8.051008e-03 -7.326580e-03 -6.645154e-03 -6.010116e-03 -5.423448e-03 -4.885610e-03 -4.395729e-03 -3.951908e-03 -3.551536e-03 -3.191573e-03 -2.868769e-03 -2.579832e-03 -2.321546e-03
-4.351171e-04 -5.306802e-04 -6.435494e-04 -7.765044e-04 -9.326107e-04 -1.115160e-03 -1.327555e-03 -1.573103e-03 -1.854696e-03 -2.174340e-03 -2.532485e-03 -2.927187e-03 -3.353128e-03 -3.800731e-03 -4.255837e-03 -4.700883e-03 -5.119208e-03 -5.504990e-03 -5.882105e-03 -6.335026e-03 -7.052263e-03 -8.375413e-03 -1.083293e-02 -1.511966e-02 -2.197229e-02 -3.190889e-02 -4.486859e-02 -5.989210e-02 -7.505635e-02 -8.782198e-02 -9.574998e-02 -9.730939e-02 -9.240358e-02 -8.236358e-02 -6.942363e-02 -5.594875e-02 -4.377440e-02 -3.389727e-02 -2.652978e-02 -2.136517e-02 -1.787312e-02 -1.551569e-02 -1.385770e-02 -1.259567e-02 -1.154232e-02 -1.059529e-02 -9.706675e-03 -8.859480e-03 -8.051948e-03 -7.288228e-03 -6.573439e-03 -5.911436e-03 -5.304103e-03 -4.751406e-03 -4.251750e-03 -3.802428e-03 -3.400026e-03 -3.040765e-03 -2.720743e-03 -2.436118e-03 -2.183222e-03
-4.150965e-04 -5.087450e-04 -6.199609e-04 -7.517003e-04 -9.072443e-04 -1.090131e-03 -1.304006e-03 -1.552361e-03 -1.838080e-03 -2.162738e-03 -2.525549e-03 -2.921860e-03 -3.341163e-03 -3.764676e-03 -4.162909e-03 -4.494259e-03 -4.706851e-03 -4.747781e-03 -4.586497e-03 -4.261562e-03 -3.959875e-03 -4.129239e-03 -5.601166e-03 -9.656108e-03 -1.791031e-02 -3.189013e-02 -5.226471e-02 -7.796780e-02 -1.057280e-01 -1.305366e-01 -1.471257e-01 -1.518570e-01 -1.440889e-01 -1.263289e-01 -1.031191e-01 -7.927277e-02 -5.837209e-02 -4.214294e-02 -3.069672e-02 -2.319953e-02 -1.851845e-02 -1.562637e-02 -1.376207e-02 -1.243512e-02 -1.136515e-02 -1.041072e-02 -9.511768e-03 -8.650417e-03 -7.827537e-03 -7.050058e-03 -6.324952e-03 -5.656913e-03 -5.047892e-03 -4.497439e-03 -4.003310e-03 -3.562074e-03 -3.169626e-03 -2.821569e-03 -2.513490e-03 -2.241136e-03 -2.000521e-03
-3.827862e-04 -4.717220e-04 -5.779131e-04 -7.043968e-04 -8.545719e-04 -1.032126e-03 -1.240872e-03 -1.484425e-03 -1.765649e-03 -2.085727e-03 -2.442689e-03 -2.829168e-03 -3.229121e-03 -3.613295e-03 -3.933467e-03 -4.116148e-03 -4.057969e-03 -3.627969e-03 -2.687238e-03 -1.143861e-03 9.312400e-04 3.102543e-03 4.283769e-03 2.447049e-03 -5.454140e-03 -2.299316e-02 -5.290626e-02 -9.502811e-02 -1.445523e-01 -1.921661e-01 -2.268139e-01 -2.399698e-01 -2.291099e-01 -1.985678e-01 -1.573927e-01 -1.154018e-01 -7.966666e-02 -5.316048e-02 -3.553901e-02 -2.479220e-02 -1.862383e-02 -1.516358e-02 -1.314533e-02 -1.181898e-02 -1.078940e-02 -9.873958e-03 -9.003381e-03 -8.161866e-03 -7.354626e-03 -6.592084e-03 -5.883220e-03 -5.233500e-03 -4.644851e-03 -4.116379e-03 -3.645238e-03 -3.227392e-03 -2.858205e-03 -2.532858e-03 -2.246620e-03 -1.995024e-03 -1.773950e-03
-3.393118e-04 -4.208274e-04 -5.187009e-04 -6.359522e-04 -7.759996e-04 -9.425988e-04 -1.139682e-03 -1.371031e-03 -1.639662e-03 -1.946773e-03 -2.289973e-03 -2.660431e-03 -3.038427e-03 -3.386677e-03 -3.640775e-03 -3.696540e-03 -3.395420e-03 -2.512595e-03 -7.598915e-04 2.170709e-03 6.476617e-03 1.196045e-02 1.753175e-02 2.052522e-02 1.610963e-02 -2.565254e-03 -4.260445e-02 -1.075268e-01 -1.924248e-01 -2.816119e-01 -3.527099e-01 -3.861739e-01 -3.738927e-01 -3.222216e-01 -2.487441e-01 -1.739181e-01 -1.122462e-01 -6.883029e-02 -4.179130e-02 -2.648593e-02 -1.840749e-02 -1.428701e-02 -1.211928e-02 -1.081654e-02 -9.851120e-03 -8.998549e-03 -8.181973e-03 -7.388022e-03 -6.625475e-03 -5.907025e-03 -5.242513e-03 -4.637335e-03 -4.092888e-03 -3.607622e-03 -3.178085e-03 -2.799770e-03 -2.467718e-03 -2.176929e-03 -1.922610e-03 -1.700315e-03 -1.506010e-03
-2.866220e-04 -3.583127e-04 -4.449175e-04 -5.493454e-04 -6.749462e-04 -8.254811e-04 -1.005005e-03 -1.217591e-03 -1.466783e-03 -1.754590e-03 -2.079714e-03 -2.434567e-03 -2.800353e-03 -3.139222e-03 -3.382187e-03 -3.411413e-03 -3.036203e-03 -1.965004e-03 2.162825e-04 4.031252e-03 1.000236e-02 1.832765e-02 2.818425e-02 3.654808e-02 3.674584e-02 1.769342e-02 -3.450883e-02 -1.315228e-01 -2.739958e-01 -4.394745e-01 -5.819656e-01 -6.569044e-01 -6.440606e-01 -5.510019e-01 -4.111616e-01 -2.706378e-01 -1.613430e-01 -9.028884e-02 -4.962525e-02 -2.842420e-02 -1.808583e-02 -1.321489e-02 -1.085483e-02 -9.542207e-03 -8.619110e-03 -7.822989e-03 -7.068476e-03 -6.340860e-03 -5.648154e-03 -5.001668e-03 -4.409494e-03 -3.875322e-03 -3.399141e-03 -2.978387e-03 -2.608970e-03 -2.286068e-03 -2.004653e-03 -1.759828e-03 -1.547022e-03 -1.362078e-03 -1.201289e-03
-2.273885e-04 -2.873490e-04 -3.603202e-04 -4.490179e-04 -5.566493e-04 -6.869362e-04 -8.440830e-04 -1.032635e-03 -1.257130e-03 -1.521392e-03 -1.827195e-03 -2.171861e-03 -2.544112e-03 -2.917089e-03 -3.237008e-03 -3.405425e-03 -3.253163e-03 -2.505793e-03 -7.475739e-04 2.590025e-03 8.144345e-03 1.628118e-02 2.618671e-02 3.389858e-02 2.876045e-02 -1.112465e-02 -1.177779e-01 -3.122842e-01 -5.946404e-01 -9.400761e-01 -1.226754e+00 -1.339445e+00 -1.265592e+00 -1.035351e+00 -7.090854e-01 -4.144156e-01 -2.192956e-01 -1.104510e-01 -5.534961e-02 -2.917347e-02 -1.725915e-02 -1.191516e-02 -9.412559e-03 -8.060020e-03 -7.142219e-03 -6.383024e-03 -5.690803e-03 -5.044279e-03 -4.444538e-03 -3.896630e-03 -3.403662e-03 -2.965740e-03 -2.580529e-03 -2.244130e-03 -1.951856e-03 -1.698781e-03 -1.480106e-03 -1.291351e-03 -1.128468e-03 -9.878598e-04 -8.663833e-04
-1.648208e-04 -2.118020e-04 -2.695544e-04 -3.405352e-04 -4.277459e-04 -5.348275e-04 -6.661498e-04 -8.268686e-04 -1.022908e-03 -1.260780e-03 -1.547100e-03 -1.887528e-03 -2.284718e-03 -2.734578e-03 -3.219773e-03 -3.699021e-03 -4.090618e-03 -4.249812e-03 -3.945001e-03 -2.854244e-03 -6.481357e-04 2.664125e-03 5.677029e-03 2.632041e-03 -2.518047e-02 -1.377063e-01 -5.226222e-01 -1.476573e+00 -2.644621e+00 -3.752300e+00 -4.363668e+00 -4.204255e+00 -3.280111e+00 -2.184824e+00 -1.121666e+00 -5.016735e-01 -2.235162e-01 -1.018164e-01 -4.832543e-02 -2.485282e-02 -1.453597e-02 -9.879884e-03 -7.600874e-03 -6.299952e-03 -5.403619e-03 -4.688406e-03 -4.072806e-03 -3.529200e-03 -3.048248e-03 -2.625485e-03 -2.256896e-03 -1.937890e-03 -1.663386e-03 -1.428158e-03 -1.227140e-03 -1.055628e-03 -9.093866e-04 -7.846826e-04 -6.782761e-04 -5.873851e-04 -5.096393e-04
-1.024150e-04 -1.359185e-04 -1.777669e-04 -2.301082e-04 -2.956832e-04 -3.779979e-04 -4.815486e-04 -6.121117e-04 -7.771168e-04 -9.861206e-04 -1.251402e-03 -1.588688e-03 -2.018023e-03 -2.564757e-03 -3.260625e-03 -4.144914e-03 -5.265946e-03 -6.683927e-03 -8.478926e-03 -1.077523e-02 -1.381295e-02 -1.814575e-02 -2.515751e-02 -3.836690e-02 -6.682917e-02 -1.359395e-01 -3.433295e-01 -1.576970e+00 2.835094e+00 1.194636e+00 1.019821e+00 1.235030e+00 4.141139e+00 -1.238450e+00 -3.277042e-01 -1.385927e-01 -6.665318e-02 -3.459641e-02 -1.960768e-02 -1.234016e-02 -8.588783e-03 -6.449079e-03 -5.073339e-03 -4.089600e-03 -3.333628e-03 -2.729406e-03 -2.237776e-03 -1.835139e-03 -1.504915e-03 -1.234195e-03 -1.012428e-03 -8.308489e-04 -6.821775e-04 -5.603905e-04 -4.605359e-04 -3.785619e-04 -3.111667e-04 -2.556662e-04 -2.098819e-04 -1.720464e-04 -1.407254e-04
-4.366335e-05 -6.396537e-05 -9.015461e-05 -1.240374e-04 -1.680428e-04 -2.254650e-04 -3.008109e-04 -4.003033e-04 -5.326169e-04 -7.099620e-04 -9.496962e-04 -1.276736e-03 -1.727186e-03 -2.353813e-03 -3.234293e-03 -4.483522e-03 -6.271624e-03 -8.849172e-03 -1.257943e-02 -1.797073e-02 -2.568104e-02 -3.640344e-02 -5.033223e-02 -6.510311e-02 -6.738291e-02 5.421912e-03 4.301109e-01 1.761643e+00 2.526862e+00 3.980572e+00 4.816744e+00 4.547604e+00 3.283998e+00 2.614571e+00 1.140003e+00 4.140534e-01 1.536022e-01 5.702438e-02 1.962535e-02 5.178003e-03 -3.164842e-05 -1.543641e-03 -1.655823e-03 -1.314130e-03 -8.910764e-04 -5.179883e-04 -2.282712e-04 -1.866406e-05 1.252946e-04 2.193037e-04 2.769007e-04 3.087175e-04 3.227091e-04 3.246605e-04 3.187000e-04 3.077332e-04 2.937808e-04 2.782318e-04 2.620271e-04 2.457933e-04 2.299362e-04
8.236256e-06 1.370417e-07 -1.151001e-05 -2.815327e-05 -5.186591e-05 -8.563506e-05 -1.337940e-04 -2.026722e-04 -3.015791e-04 -4.443004e-04 -6.513811e-04 -9.536178e-04 -1.397391e-03 -2.052762e-03 -3.025598e-03 -4.475283e-03 -6.639341e-03 -9.864498e-03 -1.463746e-02 -2.159175e-02 -3.142552e-02 -4.457372e-02 -6.028700e-02 -7.441159e-02 -7.473199e-02 -3.456096e-02 7.593797e-02 2.143703e-01 3.581538e-01 7.011895e-01 1.073582e+00 1.247178e+00 1.288952e+00 1.195475e+00 8.377183e-01 4.633378e-01 2.276877e-01 1.053597e-01 4.681248e-02 2.020255e-02 8.720039e-03 4.093730e-03 2.420607e-03 1.927953e-03 1.846721e-03 1.865220e-03 1.872004e-03 1.838347e-03 1.766313e-03 1.666914e-03 1.551661e-03 1.429831e-03 1.308037e-03 1.190589e-03 1.080046e-03 9.777257e-04 8.841148e-04 7.991666e-04 7.225129e-04 6.536072e-04 5.918184e-04
5.063847e-05 5.313740e-05 5.418156e-05 5.267851e-05 4.694238e-05 3.438837e-05 1.106945e-05 -2.902770e-05 -9.505367e-05 -2.009256e-04 -3.678013e-04 -6.278194e-04 -1.029703e-03 -1.647026e-03 -2.590075e-03 -4.022092e-03 -6.179616e-03 -9.393375e-03 -1.409797e-02 -2.080091e-02 -2.994845e-02 -4.157769e-02 -5.461356e-02 -6.579207e-02 -6.881759e-02 -5.582216e-02 -2.301298e-02 2.953177e-02 1.194267e-01 2.678118e-01 4.378351e-01 5.689655e-01 6.317652e-01 6.036138e-01 4.823291e-01 3.252552e-01 1.932815e-01 1.058048e-01 5.536620e-02 2.877577e-02 1.562719e-02 9.434311e-03 6.608635e-03 5.312650e-03 4.662284e-03 4.258232e-03 3.934310e-03 3.630220e-03 3.330276e-03 3.035332e-03 2.750717e-03 2.481576e-03 2.231457e-03 2.002194e-03 1.794240e-03 1.607073e-03 1.439559e-03 1.290219e-03 1.157427e-03 1.039536e-03 9.349544e-04
8.164328e-05 9.269584e-05 1.040437e-04 1.149296e-04 1.240654e-04 1.293407e-04 1.273819e-04 1.128852e-04 7.761390e-05 8.897241e-06 -1.125972e-04 -3.161286e-04 -6.455779e-04 -1.165998e-03 -1.972302e-03 -3.199798e-03 -5.034689e-03 -7.719086e-03 -1.153800e-02 -1.676359e-02 -2.351606e-02 -3.149129e-02 -3.953791e-02 -4.520282e-02 -4.462985e-02 -3.330166e-02 -7.257492e-03 3.696116e-02 1.024523e-01 1.859542e-01 2.710994e-01 3.352652e-01 3.614687e-01 3.427736e-01 2.859059e-01 2.113819e-01 1.414395e-01 8.818669e-02 5.299956e-02 3.191625e-02 2.009545e-02 1.372281e-02 1.031277e-02 8.418519e-03 7.262456e-03 6.453402e-03 5.806952e-03 5.242549e-03 4.728524e-03 4.254393e-03 3.817689e-03 3.418153e-03 3.055469e-03 2.728590e-03 2.435728e-03 2.174552e-03 1.942425e-03 1.736600e-03 1.554368e-03 1.393147e-03 1.250543e-03
1.002048e-04 1.175199e-04 1.364789e-04 1.566215e-04 1.770412e-04 1.961325e-04 2.112116e-04 2.179548e-04 2.095710e-04 1.756026e-04 1.002117e-04 -4.020767e-05 -2.802409e-04 -6.695298e-04 -1.277441e-03 -2.197304e-03 -3.547683e-03 -5.465330e-03 -8.080017e-03 -1.145572e-02 -1.547882e-02 -1.968075e-02 -2.301593e-02 -2.368744e-02 -1.919570e-02 -6.766511e-03 1.589808e-02 4.975171e-02 9.331486e-02 1.413809e-01 1.850481e-01 2.145321e-01 2.230946e-01 2.095450e-01 1.787164e-01 1.395954e-01 1.013622e-01 6.991205e-02 4.706299e-02 3.188061e-02 2.237756e-02 1.660959e-02 1.310274e-02 1.088673e-02 9.380328e-03 8.259181e-03 7.352577e-03 6.575199e-03 5.886276e-03 5.266815e-03 4.707669e-03 4.203668e-03 3.750941e-03 3.345854e-03 2.984685e-03 2.663618e-03 2.378831e-03 2.126612e-03 1.903439e-03 1.706043e-03 1.531436e-03
1.061490e-04 1.273856e-04 1.511952e-04 1.773625e-04 2.053212e-04 2.339518e-04 2.612871e-04 2.840861e-04 2.972304e-04 2.928870e-04 2.593811e-04 1.797455e-04 2.998054e-05 -2.227743e-04 -6.216130e-04 -1.219592e-03 -2.075537e-03 -3.242018e-03 -4.739580e-03 -6.509940e-03 -8.342532e-03 -9.778003e-03 -1.001379e-02 -7.869498e-03 -1.894875e-03 9.314218e-03 2.660614e-02 4.968348e-02 7.662201e-02 1.037860e-01 1.264762e-01 1.403140e-01 1.427601e-01 1.339927e-01 1.167646e-01 9.531434e-02 7.382216e-02 5.518731e-02 4.064824e-02 3.013936e-02 2.291535e-02 1.806572e-02 1.479630e-02 1.252140e-02 1.085282e-02 9.552133e-03 8.481030e-03 7.562617e-03 6.755205e-03 6.036115e-03 5.392357e-03 4.815580e-03 4.299507e-03 3.838748e-03 3.428298e-03 3.063389e-03 2.739471e-03 2.452253e-03 2.197738e-03 1.972252e-03 1.772456e-03
1.001058e-04 1.230513e-04 1.490990e-04 1.782196e-04 2.101255e-04 2.441235e-04 2.789063e-04 3.122636e-04 3.406941e-04 3.589030e-04 3.591879e-04 3.307552e-04 2.590940e-04 1.256878e-04 -9.138412e-05 -4.149840e-04 -8.630224e-04 -1.436889e-03 -2.101512e-03 -2.754905e-03 -3.187910e-03 -3.041613e-03 -1.781130e-03 1.283154e-03 6.891576e-03 1.563005e-02 2.764930e-02 4.239207e-02 5.845672e-02 7.372672e-02 8.581867e-02 9.274210e-02 9.351011e-02 8.842728e-02 7.893102e-02 6.706914e-02 5.485451e-02 4.377135e-02 3.459015e-02 2.746337e-02 2.215740e-02 1.828079e-02 1.543832e-02 1.330502e-02 1.164420e-02 1.029723e-02 9.163872e-03 8.183296e-03 7.319300e-03 6.550151e-03 5.862180e-03 5.245993e-03 4.694389e-03 4.201275e-03 3.761160e-03 3.368945e-03 3.019852e-03 2.709423e-03 2.433529e-03 2.188380e-03 1.970530e-03
8.337360e-05 1.060865e-04 1.320813e-04 1.614553e-04 1.941299e-04 2.297521e-04 2.675623e-04 3.062221e-04 3.436011e-04 3.765335e-04 4.005747e-04 4.098316e-04 3.970072e-04 3.539143e-04 2.728759e-04 1.496467e-04 -1.128059e-05 -1.879915e-04 -3.283128e-04 -3.330144e-04 -3.747582e-05 8.019757e-04 2.506117e-03 5.440999e-03 9.944297e-03 1.621019e-02 2.415554e-02 3.331481e-02 4.282338e-02 5.153289e-02 5.825458e-02 6.206205e-02 6.254164e-02 5.988963e-02 5.481961e-02 4.832582e-02 4.140402e-02 3.483466e-02 2.908620e-02 2.433311e-02 2.054066e-02 1.756332e-02 1.522247e-02 1.335301e-02 1.182309e-02 1.053687e-02 9.429012e-03 8.456808e-03 7.592901e-03 6.819619e-03 6.125073e-03 5.500662e-03 4.939588e-03 4.436045e-03 3.984794e-03 3.580976e-03 3.220044e-03 2.897744e-03 2.610124e-03 2.353537e-03 2.124645e-03
5.773969e-05 7.864595e-05 1.027351e-04 1.301788e-04 1.610390e-04 1.952100e-04 2.323450e-04 2.717712e-04 3.124009e-04 3.526590e-04 3.904661e-04 4.233483e-04 4.487897e-04 4.650106e-04 4.724313e-04 4.761612e-04 4.898839e-04 5.414174e-04 6.798739e-04 9.835745e-04 1.566565e-03 2.579860e-03 4.202018e-03 6.613548e-03 9.952608e-03 1.425652e-02 1.940356e-02 2.507797e-02 3.078228e-02 3.590922e-02 3.986326e-02 4.219737e-02 4.271834e-02 4.152236e-02 3.895015e-02 3.548228e-02 3.161624e-02 2.776686e-02 2.421422e-02 2.109999e-02 1.845622e-02 1.624612e-02 1.440114e-02 1.284705e-02 1.151816e-02 1.036271e-02 9.342876e-03 8.432296e-03 7.613015e-03 6.872727e-03 6.202674e-03 5.596196e-03 5.047819e-03 4.552726e-03 4.106481e-03 3.704902e-03 3.344018e-03 3.020069e-03 2.729517e-03 2.469060e-03 2.235645e-03
2.528265e-05 4.322330e-05 6.404966e-05 8.796599e-05 1.151172e-04 1.455597e-04 1.792304e-04 2.159189e-04 2.552562e-04 2.967386e-04 3.398244e-04 3.841553e-04 4.299853e-04 4.789254e-04 5.351424e-04 6.071525e-04 7.103136e-04 8.699813e-04 1.125014e-03 1.530843e-03 2.160698e-03 3.102944e-03 4.452208e-03 6.292633e-03 8.673620e-03 1.158188e-02 1.491757e-02 1.848482e-02 2.200544e-02 2.515867e-02 2.764000e-02 2.922319e-02 2.980602e-02 2.942513e-02 2.823628e-02 2.646874e-02 2.437067e-02 2.216238e-02 2.000823e-02 1.800915e-02 1.621069e-02 1.461886e-02 1.321677e-02 1.197804e-02 1.087549e-02 9.885507e-03 8.989616e-03 8.174164e-03 7.429363e-03 6.748157e-03 6.125242e-03 5.556342e-03 5.037733e-03 4.565959e-03 4.137691e-03 3.749678e-03 3.398738e-03 3.081784e-03 2.795847e-03 2.538109e-03 2.305919e-03
-1.181851e-05 2.415366e-06 1.911866e-05 3.849958e-05 6.074261e-05 8.599921e-05 1.143831e-04 1.459770e-04 1.808618e-04 2.191857e-04 2.612989e-04 3.079913e-04 3.608797e-04 4.230028e-04 4.996808e-04 5.996770e-04 7.366477e-04 9.307550e-04 1.210145e-03 1.611754e-03 2.180651e-03 2.966960e-03 4.019506e-03 5.375904e-03 7.049948e-03 9.018689e-03 1.121306e-02 1.351639e-02 1.577398e-02 1.781392e-02 1.947538e-02 2.063716e-02 2.123852e-02 2.128625e-02 2.084676e-02 2.002653e-02 1.894775e-02 1.772625e-02 1.645648e-02 1.520527e-02 1.401275e-02 1.289783e-02 1.186510e-02 1.091115e-02 1.002927e-02 9.212289e-03 8.453978e-03 7.749480e-03 7.095163e-03 6.488287e-03 5.926632e-03 5.408211e-03 4.931068e-03 4.493176e-03 4.092398e-03 3.726492e-03 3.393147e-03 3.090022e-03 2.814794e-03 2.565192e-03 2.339033e-03
-5.144991e-05 -4.127974e-05 -2.910580e-05 -1.473237e-05 2.036684e-06 2.140079e-05 4.357314e-05 6.880475e-05 9.743094e-05 1.299529e-04 1.671714e-04 2.103945e-04 2.617436e-04 3.245822e-04 4.040828e-04 5.079237e-04 6.470671e-04 8.364968e-04 1.095705e-03 1.448607e-03 1.922485e-03 2.545557e-03 3.342913e-03 4.330944e-03 5.510930e-03 6.863122e-03 8.343148e-03 9.882524e-03 1.139440e-02 1.278423e-02 1.396346e-02 1.486307e-02 1.544350e-02 1.569856e-02 1.565260e-02 1.535238e-02 1.485632e-02 1.422405e-02 1.350856e-02 1.275186e-02 1.198407e-02 1.122470e-02 1.048525e-02 9.771821e-03 9.087381e-03 8.433339e-03 7.810460e-03 7.219300e-03 6.660331e-03 6.133910e-03 5.640200e-03 5.179088e-03 4.750150e-03 4.352644e-03 3.985536e-03 3.647544e-03 3.337199e-03 3.052897e-03 2.792958e-03 2.555672e-03 2.339339e-03
-9.169112e-05 -8.561573e-05 -7.799621e-05 -6.865585e-05 -5.740171e-05 -4.401496e-05 -2.823295e-05 -9.718428e-06 1.199041e-05 3.755752e-05 6.796420e-05 1.046733e-04 1.498532e-04 2.066677e-04 2.796286e-04 3.749906e-04 5.011364e-04 6.688663e-04 8.914571e-04 1.184318e-03 1.564051e-03 2.046777e-03 2.645667e-03 3.367867e-03 4.211238e-03 5.161606e-03 6.191381e-03 7.260273e-03 8.318503e-03 9.312252e-03 1.019040e-02 1.091116e-02 1.144710e-02 1.178750e-02 1.193763e-02 1.191560e-02 1.174767e-02 1.146335e-02 1.109143e-02 1.065723e-02 1.018146e-02 9.680142e-03 9.165236e-03 8.645621e-03 8.127977e-03 7.617503e-03 7.118390e-03 6.634100e-03 6.167493e-03 5.720874e-03 5.296011e-03 4.894146e-03 4.516025e-03 4.161934e-03 3.831754e-03 3.525030e-03 3.241033e-03 2.978824e-03 2.737316e-03 2.515324e-03 2.311612e-03
-1.309016e-04 -1.286976e-04 -1.253643e-04 -1.207433e-04 -1.146504e-04 -1.068618e-04 -9.709395e-05 -8.497195e-05 -6.998301e-05 -5.140973e-05 -2.823791e-05 9.661513e-07 3.821181e-05 8.627222e-05 1.488951e-04 2.310145e-04 3.389248e-04 4.803592e-04 6.643949e-04 9.010950e-04 1.200806e-03 1.573061e-03 2.025112e-03 2.560223e-03 3.175976e-03 3.862941e-03 4.604113e-03 5.375435e-03 6.147525e-03 6.888474e-03 7.567251e-03 8.157092e-03 8.638187e-03 8.999181e-03 9.237292e-03 9.357206e-03 9.369152e-03 9.286696e-03 9.124706e-03 8.897804e-03 8.619408e-03 8.301303e-03 7.953599e-03 7.584900e-03 7.202551e-03 6.812859e-03 6.421265e-03 6.032456e-03 5.650419e-03 5.278483e-03 4.919344e-03 4.575094e-03 4.247267e-03 3.936887e-03 3.644529e-03 3.370386e-03 3.114331e-03 2.875983e-03 2.654764e-03 2.449954e-03 2.260730e-03
-1.677666e-04 -1.690307e-04 -1.695119e-04 -1.690664e-04 -1.675178e-04 -1.646428e-04 -1.601512e-04 -1.536562e-04 -1.446344e-04 -1.323711e-04 -1.158901e-04 -9.386471e-05 -6.451231e-05 -2.547530e-05 2.630048e-05 9.467325e-05 1.843716e-04 3.009837e-04 4.508259e-04 6.406474e-04 8.771348e-04 1.166210e-03 1.512150e-03 1.916618e-03 2.377746e-03 2.889448e-03 3.441166e-03 4.018167e-03 4.602471e-03 5.174302e-03 5.713866e-03 6.203160e-03 6.627496e-03 6.976499e-03 7.244475e-03 7.430158e-03 7.536009e-03 7.567267e-03 7.530967e-03 7.435082e-03 7.287869e-03 7.097443e-03 6.871523e-03 6.617315e-03 6.341461e-03 6.050029e-03 5.748500e-03 5.441762e-03 5.134107e-03 4.829226e-03 4.530219e-03 4.239611e-03 3.959390e-03 3.691047e-03 3.435630e-03 3.193797e-03 2.965878e-03 2.751929e-03 2.551784e-03 2.365106e-03 2.191428e-03
-2.013083e-04 -2.055264e-04 -2.092302e-04 -2.122845e-04 -2.145177e-04 -2.157077e-04 -2.155632e-04 -2.136979e-04 -2.095969e-04 -2.025741e-04 -1.917192e-04 -1.758352e-04 -1.533681e-04 -1.223336e-04 -8.024938e-05 -2.408475e-05 4.975330e-05 1.453773e-04 2.672956e-04 4.201864e-04 6.085566e-04 8.362892e-04 1.106104e-03 1.418986e-03 1.773663e-03 2.166220e-03 2.589959e-03 3.035556e-03 3.491551e-03 3.945121e-03 4.383042e-03 4.792705e-03 5.163022e-03 5.485117e-03 5.752708e-03 5.962190e-03 6.112455e-03 6.204531e-03 6.241143e-03 6.226254e-03 6.164664e-03 6.061675e-03 5.922827e-03 5.753702e-03 5.559774e-03 5.346289e-03 5.118180e-03 4.879992e-03 4.635830e-03 4.389325e-03 4.143617e-03 3.901358e-03 3.664728e-03 3.435459e-03 3.214879e-03 3.003950e-03 2.803318e-03 2.613357e-03 2.434216e-03 2.265861e-03 2.108111e-03
-2.308695e-04 -2.374765e-04 -2.437603e-04 -2.495889e-04 -2.547917e-04 -2.591467e-04 -2.623635e-04 -2.640617e-04 -2.637433e-04 -2.607604e-04 -2.542758e-04 -2.432200e-04 -2.262448e-04 -2.016796e-04 -1.674953e-04 -1.212854e-04 -6.027495e-05 1.862841e-05 1.187309e-04 2.433843e-04 3.957504e-04 5.785032e-04 7.934873e-04 1.041367e-03 1.321307e-03 1.630745e-03 1.965294e-03 2.318819e-03 2.683699e-03 3.051249e-03 3.412269e-03 3.757633e-03 4.078866e-03 4.368615e-03 4.620993e-03 4.831758e-03 4.998344e-03 5.119773e-03 5.196474e-03 5.230068e-03 5.223125e-03 5.178936e-03 5.101296e-03 4.994320e-03 4.862270e-03 4.709421e-03 4.539933e-03 4.357759e-03 4.166571e-03 3.969698e-03 3.770101e-03 3.570351e-03 3.372628e-03 3.178741e-03 2.990142e-03 2.807963e-03 2.633046e-03 2.465980e-03 2.307138e-03 2.156709e-03 2.014735e-03
-2.560796e-04 -2.645067e-04 -2.727313e-04 -2.806205e-04 -2.880021e-04 -2.946530e-04 -3.002844e-04 -3.045243e-04 -3.068955e-04 -3.067906e-04 -3.034444e-04 -2.959038e-04 -2.829985e-04 -2.633157e-04 -2.351826e-04 -1.966644e-04 -1.455827e-04 -7.956413e-05 3.875616e-06 1.072073e-04 2.327225e-04 3.823323e-04 5.573437e-04 7.582330e-04 9.844435e-04 1.234236e-03 1.504622e-03 1.791393e-03 2.089266e-03 2.392124e-03 2.693338e-03 2.986132e-03 3.263960e-03 3.520836e-03 3.751613e-03 3.952175e-03 4.119535e-03 4.251867e-03 4.348452e-03 4.409587e-03 4.436453e-03 4.430966e-03 4.395621e-03 4.333337e-03 4.247314e-03 4.140893e-03 4.017446e-03 3.880268e-03 3.732497e-03 3.577055e-03 3.416600e-03 3.253499e-03 3.089815e-03 2.927312e-03 2.767458e-03 2.611449e-03 2.460228e-03 2.314511e-03 2.174818e-03 2.041496e-03 1.914747e-03
-2.768098e-04 -2.865186e-04 -2.960865e-04 -3.053773e-04 -3.142157e-04 -3.223771e-04 -3.295757e-04 -3.354493e-04 -3.395433e-04 -3.412915e-04 -3.399965e-04 -3.348095e-04 -3.247126e-04 -3.085050e-04 -2.847966e-04 -2.520146e-04 -2.084251e-04 -1.521761e-04 -8.136457e-05 5.870199e-06 1.112278e-04 2.361071e-04 3.814542e-04 5.476111e-04 7.341810e-04 9.399268e-04 1.162721e-03 1.399558e-03 1.646632e-03 1.899483e-03 2.153198e-03 2.402641e-03 2.642711e-03 2.868577e-03 3.075893e-03 3.260970e-03 3.420888e-03 3.553569e-03 3.657781e-03 3.733114e-03 3.779913e-03 3.799187e-03 3.792501e-03 3.761862e-03 3.709601e-03 3.638262e-03 3.550494e-03 3.448966e-03 3.336282e-03 3.214923e-03 3.087198e-03 2.955209e-03 2.820833e-03 2.685715e-03 2.551263e-03 2.418663e-03 2.288886e-03 2.162712e-03 2.040740e-03 1.923420e-03 1.811063e-03
-2.931240e-04 -3.036292e-04 -3.140090e-04 -3.241227e-04 -3.337919e-04 -3.427913e-04 -3.508395e-04 -3.575865e-04 -3.626016e-04 -3.653593e-04 -3.652258e-04 -3.614463e-04 -3.531341e-04 -3.392647e-04 -3.186763e-04 -2.900798e-04 -2.520810e-04 -2.032172e-04 -1.420110e-04 -6.704101e-05 2.297114e-05 1.290615e-04 2.519177e-04 3.917743e-04 5.483201e-04 7.206285e-04 9.071193e-04 1.105562e-03 1.313123e-03 1.526457e-03 1.741833e-03 1.955298e-03 2.162844e-03 2.360583e-03 2.544916e-03 2.712662e-03 2.861178e-03 2.988423e-03 3.092999e-03 3.174153e-03 3.231748e-03 3.266213e-03 3.278471e-03 3.269856e-03 3.242026e-03 3.196874e-03 3.136442e-03 3.062842e-03 2.978189e-03 2.884542e-03 2.783856e-03 2.677951e-03 2.568487e-03 2.456948e-03 2.344639e-03 2.232684e-03 2.122034e-03 2.013478e-03 1.907653e-03 1.805060e-03 1.706082e-03
-3.052310e-04 -3.161135e-04 -3.268523e-04 -3.373026e-04 -3.472839e-04 -3.565721e-04 -3.648921e-04 -3.719084e-04 -3.772155e-04 -3.803285e-04 -3.806738e-04 -3.775810e-04 -3.702782e-04 -3.578897e-04 -3.394412e-04 -3.138708e-04 -2.800499e-04 -2.368146e-04 -1.830083e-04 -1.175366e-04 -3.943131e-05 5.207681e-05 1.574824e-04 2.769320e-04 4.101587e-04 5.564330e-04 7.145354e-04 8.827563e-04 1.058926e-03 1.240474e-03 1.424516e-03 1.607965e-03 1.787649e-03 1.960443e-03 2.123390e-03 2.273811e-03 2.409400e-03 2.528287e-03 2.629087e-03 2.710912e-03 2.773369e-03 2.816526e-03 2.840875e-03 2.847268e-03 2.836858e-03 2.811027e-03 2.771322e-03 2.719389e-03 2.656917e-03 2.585583e-03 2.507016e-03 2.422760e-03 2.334251e-03 2.242797e-03 2.149574e-03 2.055617e-03 1.961822e-03 1.868955e-03 1.777653e-03 1.688438e-03 1.601726e-03
-3.134412e-04 -3.243526e-04 -3.350796e-04 -3.454747e-04 -3.553569e-04 -3.645056e-04 -3.726545e-04 -3.794845e-04 -3.846170e-04 -3.876073e-04 -3.879385e-04 -3.850175e-04 -3.781729e-04 -3.666569e-04 -3.496510e-04 -3.262784e-04 -2.956226e-04 -2.567534e-04 -2.087620e-04 -1.508026e-04 -8.214134e-05 -2.209725e-06 8.934055e-05 1.925847e-04 3.072789e-04 4.328250e-04 5.682513e-04 7.122119e-04 8.630068e-04 1.018623e-03 1.176797e-03 1.335089e-03 1.490973e-03 1.641932e-03 1.785548e-03 1.919589e-03 2.042085e-03 2.151389e-03 2.246210e-03 2.325647e-03 2.389181e-03 2.436673e-03 2.468327e-03 2.484661e-03 2.486455e-03 2.474702e-03 2.450556e-03 2.415285e-03 2.370219e-03 2.316708e-03 2.256088e-03 2.189650e-03 2.118616e-03 2.044119e-03 1.967197e-03 1.888781e-03 1.809695e-03 1.730655e-03 1.652277e-03 1.575078e-03 1.499485e-03
-3.181287e-04 -3.287905e-04 -3.392145e-04 -3.492522e-04 -3.587243e-04 -3.674159e-04 -3.750719e-04 -3.813919e-04 -3.860250e-04 -3.885661e-04 -3.885521e-04 -3.854602e-04 -3.787084e-04 -3.676588e-04 -3.516245e-04 -3.298811e-04 -3.016833e-04 -2.662872e-04 -2.229777e-04 -1.711013e-04 -1.101036e-04 -3.956885e-05 4.073981e-05 1.308420e-04 2.305071e-04 3.392298e-04 4.562163e-04 5.803841e-04 7.103767e-04 8.445937e-04 9.812343e-04 1.118353e-03 1.253926e-03 1.385917e-03 1.512352e-03 1.631384e-03 1.741352e-03 1.840829e-03 1.928662e-03 2.003990e-03 2.066256e-03 2.115205e-03 2.150860e-03 2.173508e-03 2.183659e-03 2.182015e-03 2.169427e-03 2.146860e-03 2.115350e-03 2.075974e-03 2.029816e-03 1.977941e-03 1.921377e-03 1.861092e-03 1.797987e-03 1.732885e-03 1.666527e-03 1.599572e-03 1.532594e-03 1.466090e-03 1.400479e-03
-3.197007e-04 -3.298997e-04 -3.398024e-04 -3.492611e-04 -3.581005e-04 -3.661137e-04 -3.730589e-04 -3.786556e-04 -3.825816e-04 -3.844704e-04 -3.839094e-04 -3.804402e-04 -3.735599e-04 -3.627258e-04 -3.473624e-04 -3.268719e-04 -3.006489e-04 -2.680984e-04 -2.286586e-04 -1.818262e-04 -1.271851e-04 -6.443606e-05 6.573185e-06 8.582048e-05 1.730854e-04 2.679320e-04 3.696994e-04 4.775026e-04 5.902434e-04 7.066329e-04 8.252236e-04 9.444511e-04 1.062682e-03 1.178265e-03 1.289588e-03 1.395123e-03 1.493479e-03 1.583438e-03 1.663988e-03 1.734341e-03 1.793948e-03 1.842495e-03 1.879898e-03 1.906287e-03 1.921981e-03 1.927466e-03 1.923363e-03 1.910396e-03 1.889368e-03 1.861130e-03 1.826554e-03 1.786512e-03 1.741858e-03 1.693411e-03 1.641943e-03 1.588172e-03 1.532755e-03 1.476284e-03 1.419287e-03 1.362228e-03 1.305509e-03
-3.185732e-04 -3.281546e-04 -3.373816e-04 -3.461093e-04 -3.541684e-04 -3.613620e-04 -3.674631e-04 -3.722125e-04 -3.753164e-04 -3.764455e-04 -3.752347e-04 -3.712836e-04 -3.641598e-04 -3.534030e-04 -3.385321e-04 -3.190549e-04 -2.944804e-04 -2.643339e-04 -2.281754e-04 -1.856190e-04 -1.363555e-04 -8.017480e-05 -1.698773e-05 5.315344e-05 1.300381e-04 2.132851e-04 3.023370e-04 3.964606e-04 4.947565e-04 5.961758e-04 6.995447e-04 8.035950e-04 9.070011e-04 1.008419e-03 1.106526e-03 1.200062e-03 1.287865e-03 1.368901e-03 1.442295e-03 1.507343e-03 1.563525e-03 1.610510e-03 1.648152e-03 1.676477e-03 1.695672e-03 1.706063e-03 1.708096e-03 1.702314e-03 1.689332e-03 1.669817e-03 1.644465e-03 1.613986e-03 1.579085e-03 1.540446e-03 1.498728e-03 1.454547e-03 1.408480e-03 1.361052e-03 1.312739e-03 1.263968e-03 1.215112e-03
-3.151534e-04 -3.240125e-04 -3.324635e-04 -3.403663e-04 -3.475589e-04 -3.538560e-04 -3.590466e-04 -3.628932e-04 -3.651300e-04 -3.654632e-04 -3.635713e-04 -3.591068e-04 -3.516990e-04 -3.409590e-04 -3.264859e-04 -3.078756e-04 -2.847308e-04 -2.566742e-04 -2.233621e-04 -1.845013e-04 -1.398651e-04 -8.931066e-05 -3.279564e-05 2.960724e-05 9.769796e-05 1.711408e-04 2.494606e-04 3.320443e-04 4.181481e-04 5.069111e-04 5.973735e-04 6.885007e-04 7.792105e-04 8.684031e-04 9.549923e-04 1.037936e-03 1.116263e-03 1.189103e-03 1.255702e-03 1.315439e-03 1.367840e-03 1.412576e-03 1.449470e-03 1.478482e-03 1.499707e-03 1.513357e-03 1.519748e-03 1.519280e-03 1.512422e-03 1.499695e-03 1.481652e-03 1.458865e-03 1.431913e-03 1.401366e-03 1.367778e-03 1.331677e-03 1.293561e-03 1.253893e-03 1.213096e-03 1.171556e-03 1.129617e-03
-3.098270e-04 -3.179011e-04 -3.255203e-04 -3.325505e-04 -3.388389e-04 -3.442124e-04 -3.484768e-04 -3.514161e-04 -3.527916e-04 -3.523429e-04 -3.497885e-04 -3.448280e-04 -3.371451e-04 -3.264125e-04 -3.122972e-04 -2.944683e-04 -2.726055e-04 -2.464098e-04 -2.156149e-04 -1.799994e-04 -1.394005e-04 -9.372597e-05 -4.296739e-05 1.278967e-05 7.335679e-05 1.384369e-04 2.076223e-04 2.803960e-04 3.561385e-04 4.341375e-04 5.136032e-04 5.936859e-04 6.734973e-04 7.521336e-04 8.286990e-04 9.023297e-04 9.722161e-04 1.037622e-03 1.097904e-03 1.152520e-03 1.201043e-03 1.243162e-03 1.278685e-03 1.307535e-03 1.329744e-03 1.345442e-03 1.354846e-03 1.358251e-03 1.356012e-03 1.348532e-03 1.336248e-03 1.319621e-03 1.299123e-03 1.275224e-03 1.248389e-03 1.219067e-03 1.187686e-03 1.154648e-03 1.120327e-03 1.085068e-03 1.049181e-03
-3.029500e-04 -3.102102e-04 -3.169771e-04 -3.231236e-04 -3.285068e-04 -3.329667e-04 -3.363261e-04 -3.383897e-04 -3.389448e-04 -3.377618e-04 -3.345954e-04 -3.291873e-04 -3.212688e-04 -3.105652e-04 -2.968009e-04 -2.797058e-04 -2.590229e-04 -2.345162e-04 -2.059807e-04 -1.732515e-04 -1.362143e-04 -9.481497e-05 -4.906896e-05 9.311235e-07 5.500918e-05 1.129018e-04 1.742572e-04 2.386370e-04 3.055215e-04 3.743179e-04 4.443718e-04 5.149815e-04 5.854141e-04 6.549231e-04 7.227672e-04 7.882284e-04 8.506299e-04 9.093510e-04 9.638417e-04 1.013633e-03 1.058344e-03 1.097687e-03 1.131472e-03 1.159597e-03 1.182054e-03 1.198915e-03 1.210326e-03 1.216500e-03 1.217703e-03 1.214247e-03 1.206476e-03 1.194759e-03 1.179478e-03 1.161022e-03 1.139778e-03 1.116124e-03 1.090426e-03 1.063033e-03 1.034271e-03 1.004444e-03 9.738331e-04
-2.948444e-04 -3.012884e-04 -3.072094e-04 -3.124884e-04 -3.169926e-04 -3.205756e-04 -3.230764e-04 -3.243201e-04 -3.241181e-04 -3.222689e-04 -3.185601e-04 -3.127703e-04 -3.046722e-04 -2.940360e-04 -2.806344e-04 -2.642480e-04 -2.446710e-04 -2.217186e-04 -1.952340e-04 -1.650965e-04 -1.312287e-04 -9.360463e-05 -5.225596e-05 -7.278094e-06 4.116564e-05 9.284143e-05 1.474445e-04 2.046013e-04 2.638733e-04 3.247643e-04 3.867293e-04 4.491854e-04 5.115247e-04 5.731281e-04 6.333795e-04 6.916804e-04 7.474634e-04 8.002046e-04 8.494351e-04 8.947491e-04 9.358111e-04 9.723597e-04 1.004210e-03 1.031252e-03 1.053449e-03 1.070834e-03 1.083501e-03 1.091601e-03 1.095333e-03 1.094935e-03 1.090678e-03 1.082855e-03 1.071776e-03 1.057761e-03 1.041129e-03 1.022201e-03 1.001285e-03 9.786817e-04 9.546749e-04 9.295320e-04 9.035018e-04
-2.857958e-04 -2.914417e-04 -2.965435e-04 -3.009907e-04 -3.046611e-04 -3.074214e-04 -3.091267e-04 -3.096210e-04 -3.087380e-04 -3.063019e-04 -3.021294e-04 -2.960316e-04 -2.878168e-04 -2.772936e-04 -2.642752e-04 -2.485839e-04 -2.300558e-04 -2.085471e-04 -1.839392e-04 -1.561455e-04 -1.251168e-04 -9.084721e-05 -5.337927e-05 -1.280796e-05 3.071618e-05 7.698552e-05 1.257353e-04 1.766456e-04 2.293449e-04 2.834155e-04 3.384011e-04 3.938151e-04 4.491508e-04 5.038925e-04 5.575260e-04 6.095505e-04 6.594893e-04 7.068995e-04 7.513810e-04 7.925837e-04 8.302132e-04 8.640342e-04 8.938730e-04 9.196169e-04 9.412135e-04 9.586670e-04 9.720347e-04 9.814213e-04 9.869732e-04 9.888726e-04 9.873303e-04 9.825801e-04 9.748721e-04 9.644668e-04 9.516303e-04 9.366290e-04 9.197257e-04 9.011762e-04 8.812263e-04 8.601093e-04 8.380449e-04
