2.520359e-04 2.579340e-04 2.636805e-04 2.692169e-04 2.744746e-04 2.793744e-04 2.838252e-04 2.877226e-04 2.909488e-04 2.933713e-04 2.948432e-04 2.952028e-04 2.942742e-04 2.918691e-04 2.877880e-04 2.818234e-04 2.737632e-04 2.633951e-04 2.505121e-04 2.349186e-04 2.164370e-04 1.949152e-04 1.702342e-04 1.423151e-04 1.111268e-04 7.669158e-05 3.909067e-05 -1.532555e-06 -4.497075e-05 -9.095304e-05 -1.391476e-04 -1.891667e-04 -2.405735e-04 -2.928909e-04 -3.456126e-04 -3.982143e-04 -4.501663e-04 -5.009463e-04 -5.500510e-04 -5.970084e-04 -6.413868e-04 -6.828043e-04 -7.209346e-04 -7.555119e-04 -7.863334e-04 -8.132598e-04 -8.362140e-04 -8.551781e-04 -8.701893e-04 -8.813345e-04 -8.887445e-04 -8.925868e-04 -8.930598e-04 -8.903854e-04 -8.848031e-04 -8.765638e-04 -8.659241e-04 -8.531421e-04 -8.384724e-04 -8.221633e-04 -8.044532e-04
2.592372e-04 2.655991e-04 2.718380e-04 2.778950e-04 2.837006e-04 2.891730e-04 2.942167e-04 2.987213e-04 3.025602e-04 3.055894e-04 3.076469e-04 3.085525e-04 3.081078e-04 3.060975e-04 3.022911e-04 2.964460e-04 2.883110e-04 2.776320e-04 2.641576e-04 2.476471e-04 2.278785e-04 2.046577e-04 1.778281e-04 1.472800e-04 1.129599e-04 7.487864e-05 3.311850e-05 -1.216221e-05 -6.072642e-05 -1.122585e-04 -1.663673e-04 -2.225919e-04 -2.804110e-04 -3.392536e-04 -3.985126e-04 -4.575601e-04 -5.157630e-04 -5.724986e-04 -6.271707e-04 -6.792233e-04 -7.281532e-04 -7.735202e-04 -8.149550e-04 -8.521640e-04 -8.849318e-04 -9.131211e-04 -9.366701e-04 -9.555883e-04 -9.699502e-04 -9.798883e-04 -9.855847e-04 -9.872630e-04 -9.851799e-04 -9.796161e-04 -9.708694e-04 -9.592468e-04 -9.450586e-04 -9.286122e-04 -9.102080e-04 -8.901349e-04 -8.686677e-04
2.657791e-04 2.725705e-04 2.792692e-04 2.858172e-04 2.921449e-04 2.981690e-04 3.037909e-04 3.088949e-04 3.133466e-04 3.169907e-04 3.196504e-04 3.211259e-04 3.211950e-04 3.196128e-04 3.161143e-04 3.104167e-04 3.022238e-04 2.912317e-04 2.771367e-04 2.596431e-04 2.384744e-04 2.133840e-04 1.841678e-04 1.506758e-04 1.128250e-04 7.060937e-05 2.410978e-05 -2.649951e-05 -8.094704e-05 -1.388638e-04 -1.997867e-04 -2.631661e-04 -3.283766e-04 -3.947318e-04 -4.615015e-04 -5.279305e-04 -5.932593e-04 -6.567440e-04 -7.176762e-04 -7.754005e-04 -8.293302e-04 -8.789593e-04 -9.238715e-04 -9.637460e-04 -9.983591e-04 -1.027583e-03 -1.051382e-03 -1.069806e-03 -1.082980e-03 -1.091097e-03 -1.094407e-03 -1.093205e-03 -1.087818e-03 -1.078602e-03 -1.065924e-03 -1.050158e-03 -1.031677e-03 -1.010846e-03 -9.880166e-04 -9.635235e-04 -9.376813e-04
2.714871e-04 2.786520e-04 2.857546e-04 2.927387e-04 2.995358e-04 3.060624e-04 3.122184e-04 3.178842e-04 3.229186e-04 3.271560e-04 3.304051e-04 3.324466e-04 3.330328e-04 3.318875e-04 3.287070e-04 3.231635e-04 3.149088e-04 3.035814e-04 2.888146e-04 2.702468e-04 2.475347e-04 2.203666e-04 1.884783e-04 1.516683e-04 1.098143e-04 6.288662e-05 1.096152e-05 -4.576991e-05 -1.069961e-04 -1.722841e-04 -2.410833e-04 -3.127351e-04 -3.864864e-04 -4.615085e-04 -5.369192e-04 -6.118074e-04 -6.852588e-04 -7.563827e-04 -8.243360e-04 -8.883458e-04 -9.477284e-04 -1.001904e-03 -1.050407e-03 -1.092892e-03 -1.129135e-03 -1.159028e-03 -1.182577e-03 -1.199887e-03 -1.211156e-03 -1.216656e-03 -1.216722e-03 -1.211739e-03 -1.202127e-03 -1.188328e-03 -1.170793e-03 -1.149977e-03 -1.126325e-03 -1.100267e-03 -1.072214e-03 -1.042550e-03 -1.011632e-03
2.761711e-04 2.836276e-04 2.910492e-04 2.983829e-04 3.055623e-04 3.125057e-04 3.191128e-04 3.252620e-04 3.308069e-04 3.355732e-04 3.393560e-04 3.419169e-04 3.429821e-04 3.422418e-04 3.393507e-04 3.339304e-04 3.255737e-04 3.138517e-04 2.983236e-04 2.785489e-04 2.541025e-04 2.245927e-04 1.896797e-04 1.490966e-04 1.026697e-04 5.033716e-05 -7.833634e-06 -7.163370e-05 -1.407043e-04 -2.145351e-04 -2.924687e-04 -3.737119e-04 -4.573539e-04 -5.423902e-04 -6.277509e-04 -7.123329e-04 -7.950334e-04 -8.747831e-04 -9.505778e-04 -1.021506e-03 -1.086774e-03 -1.145719e-03 -1.197828e-03 -1.242735e-03 -1.280227e-03 -1.310235e-03 -1.332824e-03 -1.348182e-03 -1.356598e-03 -1.358451e-03 -1.354186e-03 -1.344302e-03 -1.329328e-03 -1.309813e-03 -1.286312e-03 -1.259370e-03 -1.229516e-03 -1.197255e-03 -1.163060e-03 -1.127371e-03 -1.090589e-03
2.796284e-04 2.872637e-04 2.948849e-04 3.024428e-04 3.098751e-04 3.171028e-04 3.240278e-04 3.305282e-04 3.364548e-04 3.416266e-04 3.458267e-04 3.487984e-04 3.502422e-04 3.498133e-04 3.471215e-04 3.417326e-04 3.331727e-04 3.209353e-04 3.044927e-04 2.833099e-04 2.568635e-04 2.246628e-04 1.862748e-04 1.413497e-04 8.964782e-05 3.106488e-05 -3.434583e-05 -1.063557e-04 -1.845497e-04 -2.683229e-04 -3.568861e-04 -4.492797e-04 -5.443972e-04 -6.410160e-04 -7.378344e-04 -8.335133e-04 -9.267193e-04 -1.016168e-03 -1.100662e-03 -1.179130e-03 -1.250651e-03 -1.314478e-03 -1.370048e-03 -1.416991e-03 -1.455121e-03 -1.484432e-03 -1.505077e-03 -1.517353e-03 -1.521676e-03 -1.518562e-03 -1.508596e-03 -1.492416e-03 -1.470689e-03 -1.444092e-03 -1.413299e-03 -1.378961e-03 -1.341703e-03 -1.302111e-03 -1.260729e-03 -1.218051e-03 -1.174525e-03
2.816488e-04 2.893145e-04 2.969752e-04 3.045862e-04 3.120898e-04 3.194120e-04 3.264581e-04 3.331086e-04 3.392138e-04 3.445885e-04 3.490061e-04 3.521937e-04 3.538264e-04 3.535239e-04 3.508485e-04 3.453050e-04 3.363448e-04 3.233727e-04 3.057595e-04 2.828586e-04 2.540279e-04 2.186571e-04 1.761976e-04 1.261966e-04 6.833168e-05 2.443618e-06 -7.143330e-05 -1.530477e-04 -2.419155e-04 -3.373149e-04 -4.382922e-04 -5.436808e-04 -6.521305e-04 -7.621479e-04 -8.721449e-04 -9.804928e-04 -1.085578e-03 -1.185856e-03 -1.279904e-03 -1.366465e-03 -1.444478e-03 -1.513109e-03 -1.571757e-03 -1.620063e-03 -1.657898e-03 -1.685350e-03 -1.702699e-03 -1.710391e-03 -1.709011e-03 -1.699246e-03 -1.681861e-03 -1.657666e-03 -1.627493e-03 -1.592171e-03 -1.552513e-03 -1.509292e-03 -1.463239e-03 -1.415027e-03 -1.365273e-03 -1.314531e-03 -1.263290e-03
2.820209e-04 2.895292e-04 2.970230e-04 3.044623e-04 3.117949e-04 3.189522e-04 3.258450e-04 3.323581e-04 3.383440e-04 3.436160e-04 3.479410e-04 3.510315e-04 3.525393e-04 3.520484e-04 3.490712e-04 3.430468e-04 3.333433e-04 3.192647e-04 3.000643e-04 2.749639e-04 2.431801e-04 2.039579e-04 1.566085e-04 1.005530e-04 3.536678e-05 -3.917634e-05 -1.230650e-04 -2.160179e-04 -3.174635e-04 -4.265318e-04 -5.420627e-04 -6.626292e-04 -7.865770e-04 -9.120769e-04 -1.037188e-03 -1.159927e-03 -1.278342e-03 -1.390581e-03 -1.494959e-03 -1.590007e-03 -1.674518e-03 -1.747573e-03 -1.808554e-03 -1.857141e-03 -1.893303e-03 -1.917266e-03 -1.929487e-03 -1.930616e-03 -1.921451e-03 -1.902905e-03 -1.875961e-03 -1.841642e-03 -1.800976e-03 -1.754972e-03 -1.704598e-03 -1.650767e-03 -1.594322e-03 -1.536031e-03 -1.476582e-03 -1.416586e-03 -1.356571e-03
2.805420e-04 2.876621e-04 2.947317e-04 3.017146e-04 3.085635e-04 3.152156e-04 3.215880e-04 3.275714e-04 3.330227e-04 3.377564e-04 3.415353e-04 3.440609e-04 3.449627e-04 3.437895e-04 3.400018e-04 3.329677e-04 3.219628e-04 3.061769e-04 2.847272e-04 2.566814e-04 2.210888e-04 1.770212e-04 1.236221e-04 6.016137e-05 -1.390657e-05 -9.888531e-05 -1.947847e-04 -3.012789e-04 -4.176787e-04 -5.429219e-04 -6.755840e-04 -8.139094e-04 -9.558632e-04 -1.099200e-03 -1.241547e-03 -1.380494e-03 -1.513684e-03 -1.638908e-03 -1.754180e-03 -1.857803e-03 -1.948424e-03 -2.025055e-03 -2.087091e-03 -2.134301e-03 -2.166801e-03 -2.185023e-03 -2.189664e-03 -2.181639e-03 -2.162028e-03 -2.132022e-03 -2.092877e-03 -2.045868e-03 -1.992255e-03 -1.933254e-03 -1.870009e-03 -1.803580e-03 -1.734933e-03 -1.664928e-03 -1.594325e-03 -1.523782e-03 -1.453857e-03
2.770294e-04 2.834862e-04 2.898205e-04 2.959974e-04 3.019724e-04 3.076876e-04 3.130658e-04 3.180039e-04 3.223642e-04 3.259644e-04 3.285656e-04 3.298598e-04 3.294562e-04 3.268678e-04 3.215005e-04 3.126447e-04 2.994726e-04 2.810429e-04 2.563156e-04 2.241769e-04 1.834785e-04 1.330877e-04 7.194981e-05 -8.408045e-07 -8.596565e-05 -1.838076e-04 -2.943837e-04 -4.172913e-04 -5.516737e-04 -6.962096e-04 -8.491292e-04 -1.008257e-03 -1.171083e-03 -1.334849e-03 -1.496660e-03 -1.653599e-03 -1.802841e-03 -1.941770e-03 -2.068073e-03 -2.179822e-03 -2.275527e-03 -2.354172e-03 -2.415216e-03 -2.458581e-03 -2.484609e-03 -2.494016e-03 -2.487823e-03 -2.467293e-03 -2.433858e-03 -2.389058e-03 -2.334474e-03 -2.271683e-03 -2.202213e-03 -2.127508e-03 -2.048907e-03 -1.967627e-03 -1.884752e-03 -1.801233e-03 -1.717890e-03 -1.635418e-03 -1.554390e-03
2.713347e-04 2.768104e-04 2.820444e-04 2.869987e-04 2.916283e-04 2.958761e-04 2.996683e-04 3.029061e-04 3.054565e-04 3.071400e-04 3.077165e-04 3.068689e-04 3.041854e-04 2.991409e-04 2.910811e-04 2.792085e-04 2.625760e-04 2.400890e-04 2.105209e-04 1.725430e-04 1.247715e-04 6.583276e-05 -5.556867e-06 -9.049864e-05 -1.898134e-04 -3.039455e-04 -4.328773e-04 -5.760629e-04 -7.323894e-04 -9.001695e-04 -1.077170e-03 -1.260674e-03 -1.447574e-03 -1.634494e-03 -1.817921e-03 -1.994357e-03 -2.160457e-03 -2.313172e-03 -2.449858e-03 -2.568373e-03 -2.667139e-03 -2.745171e-03 -2.802072e-03 -2.838010e-03 -2.853654e-03 -2.850106e-03 -2.828814e-03 -2.791484e-03 -2.739987e-03 -2.676282e-03 -2.602341e-03 -2.520087e-03 -2.431348e-03 -2.337819e-03 -2.241043e-03 -2.142390e-03 -2.043061e-03 -1.944081e-03 -1.846313e-03 -1.750468e-03 -1.657113e-03
2.633603e-04 2.674991e-04 2.712180e-04 2.744697e-04 2.772012e-04 2.793509e-04 2.808419e-04 2.815752e-04 2.814179e-04 2.801903e-04 2.776479e-04 2.734612e-04 2.671925e-04 2.582715e-04 2.459714e-04 2.293886e-04 2.074305e-04 1.788144e-04 1.420838e-04 9.564539e-05 3.782945e-05 -3.302474e-05 -1.184622e-04 -2.197893e-04 -3.379445e-04 -4.733746e-04 -6.259286e-04 -7.947828e-04 -9.784043e-04 -1.174560e-03 -1.380372e-03 -1.592412e-03 -1.806832e-03 -2.019520e-03 -2.226272e-03 -2.422964e-03 -2.605726e-03 -2.771095e-03 -2.916144e-03 -3.038589e-03 -3.136848e-03 -3.210070e-03 -3.258120e-03 -3.281533e-03 -3.281431e-03 -3.259429e-03 -3.217517e-03 -3.157952e-03 -3.083139e-03 -2.995534e-03 -2.897557e-03 -2.791521e-03 -2.679578e-03 -2.563688e-03 -2.445593e-03 -2.326809e-03 -2.208630e-03 -2.092133e-03 -1.978197e-03 -1.867517e-03 -1.760625e-03
2.530770e-04 2.554947e-04 2.572440e-04 2.582582e-04 2.584672e-04 2.577941e-04 2.561500e-04 2.534258e-04 2.494807e-04 2.441258e-04 2.371040e-04 2.280641e-04 2.165308e-04 2.018717e-04 1.832635e-04 1.596626e-04 1.297842e-04 9.209688e-05 4.484138e-05 -1.392163e-05 -8.622886e-05 -1.740961e-04 -2.793689e-04 -4.035517e-04 -5.476322e-04 -7.119205e-04 -8.959227e-04 -1.098267e-03 -1.316692e-03 -1.548102e-03 -1.788679e-03 -2.034039e-03 -2.279420e-03 -2.519885e-03 -2.750521e-03 -2.966631e-03 -3.163916e-03 -3.338629e-03 -3.487710e-03 -3.608884e-03 -3.700723e-03 -3.762666e-03 -3.794993e-03 -3.798756e-03 -3.775679e-03 -3.728024e-03 -3.658455e-03 -3.569887e-03 -3.465352e-03 -3.347875e-03 -3.220375e-03 -3.085583e-03 -2.945991e-03 -2.803815e-03 -2.660980e-03 -2.519120e-03 -2.379588e-03 -2.243474e-03 -2.111629e-03 -1.984695e-03 -1.863126e-03
2.405413e-04 2.408407e-04 2.401425e-04 2.383482e-04 2.353566e-04 2.310618e-04 2.253482e-04 2.180828e-04 2.091020e-04 1.981938e-04 1.850732e-04 1.693494e-04 1.504869e-04 1.277601e-04 1.002060e-04 6.657896e-05 2.531779e-05 -2.546637e-05 -8.796809e-05 -1.646208e-04 -2.579761e-04 -3.705283e-04 -5.044902e-04 -6.615404e-04 -8.425702e-04 -1.047468e-03 -1.274973e-03 -1.522633e-03 -1.786864e-03 -2.063122e-03 -2.346141e-03 -2.630214e-03 -2.909475e-03 -3.178149e-03 -3.430764e-03 -3.662316e-03 -3.868409e-03 -4.045365e-03 -4.190321e-03 -4.301308e-03 -4.377306e-03 -4.418259e-03 -4.425043e-03 -4.399390e-03 -4.343768e-03 -4.261219e-03 -4.155191e-03 -4.029357e-03 -3.887450e-03 -3.733116e-03 -3.569803e-03 -3.400670e-03 -3.228534e-03 -3.055840e-03 -2.884657e-03 -2.716686e-03 -2.553285e-03 -2.395500e-03 -2.244100e-03 -2.099615e-03 -1.962374e-03
2.259110e-04 2.237033e-04 2.200813e-04 2.148985e-04 2.080059e-04 1.992503e-04 1.884709e-04 1.754907e-04 1.601039e-04 1.420548e-04 1.210075e-04 9.650503e-05 6.791648e-05 3.437361e-05 -5.299111e-06 -5.265364e-05 -1.096742e-04 -1.788030e-04 -2.629147e-04 -3.652195e-04 -4.890772e-04 -6.377168e-04 -8.138752e-04 -1.019389e-03 -1.254797e-03 -1.519026e-03 -1.809229e-03 -2.120824e-03 -2.447749e-03 -2.782891e-03 -3.118616e-03 -3.447306e-03 -3.761797e-03 -4.055685e-03 -4.323473e-03 -4.560594e-03 -4.763373e-03 -4.928982e-03 -5.055422e-03 -5.141551e-03 -5.187127e-03 -5.192851e-03 -5.160367e-03 -5.092204e-03 -4.991661e-03 -4.862635e-03 -4.709420e-03 -4.536496e-03 -4.348328e-03 -4.149203e-03 -3.943086e-03 -3.733537e-03 -3.523655e-03 -3.316054e-03 -3.112877e-03 -2.915815e-03 -2.726156e-03 -2.544822e-03 -2.372428e-03 -2.209328e-03 -2.055658e-03
2.094556e-04 2.043878e-04 1.973993e-04 1.882779e-04 1.768069e-04 1.627645e-04 1.459218e-04 1.260352e-04 1.028330e-04 7.599112e-05 4.509647e-05 9.593149e-06 -3.129022e-05 -7.863236e-05 -1.339268e-04 -1.991945e-04 -2.770839e-04 -3.709294e-04 -4.847319e-04 -6.230203e-04 -7.905567e-04 -9.918682e-04 -1.230622e-03 -1.508906e-03 -1.826535e-03 -2.180522e-03 -2.564885e-03 -2.970876e-03 -3.387666e-03 -3.803372e-03 -4.206239e-03 -4.585712e-03 -4.933201e-03 -5.242400e-03 -5.509172e-03 -5.731141e-03 -5.907163e-03 -6.036864e-03 -6.120356e-03 -6.158162e-03 -6.151298e-03 -6.101425e-03 -6.010983e-03 -5.883245e-03 -5.722262e-03 -5.532713e-03 -5.319678e-03 -5.088397e-03 -4.844030e-03 -4.591446e-03 -4.335073e-03 -4.078797e-03 -3.825907e-03 -3.579091e-03 -3.340459e-03 -3.111591e-03 -2.893597e-03 -2.687182e-03 -2.492714e-03 -2.310289e-03 -2.139783e-03
1.915580e-04 1.833454e-04 1.726215e-04 1.590898e-04 1.424447e-04 1.223734e-04 9.855571e-05 7.065829e-05 3.832121e-05 1.131204e-06 -4.142360e-05 -9.002426e-05 -1.456230e-04 -2.095803e-04 -2.838359e-04 -3.711027e-04 -4.750557e-04 -6.004734e-04 -7.532620e-04 -9.402815e-04 -1.168890e-03 -1.446145e-03 -1.777681e-03 -2.166348e-03 -2.610861e-03 -3.104775e-03 -3.636139e-03 -4.188098e-03 -4.740492e-03 -5.272227e-03 -5.763916e-03 -6.200178e-03 -6.571044e-03 -6.872192e-03 -7.104090e-03 -7.270437e-03 -7.376412e-03 -7.427244e-03 -7.427363e-03 -7.380201e-03 -7.288470e-03 -7.154684e-03 -6.981680e-03 -6.772983e-03 -6.532934e-03 -6.266612e-03 -5.979606e-03 -5.677709e-03 -5.366609e-03 -5.051629e-03 -4.737529e-03 -4.428387e-03 -4.127549e-03 -3.837636e-03 -3.560587e-03 -3.297734e-03 -3.049883e-03 -2.817405e-03 -2.600318e-03 -2.398367e-03 -2.211091e-03
1.727053e-04 1.611660e-04 1.464558e-04 1.281756e-04 1.059118e-04 7.924028e-05 4.773019e-05 1.094183e-05 -3.158425e-05 -8.035479e-05 -1.359770e-04 -1.992497e-04 -2.713054e-04 -3.538167e-04 -4.492725e-04 -5.613182e-04 -6.951283e-04 -8.577411e-04 -1.058242e-03 -1.307627e-03 -1.618165e-03 -2.002073e-03 -2.469461e-03 -3.025677e-03 -3.668480e-03 -4.385753e-03 -5.154586e-03 -5.942448e-03 -6.710676e-03 -7.419802e-03 -8.035539e-03 -8.533888e-03 -8.903968e-03 -9.147904e-03 -9.278027e-03 -9.312445e-03 -9.270423e-03 -9.168782e-03 -9.019990e-03 -8.831948e-03 -8.608985e-03 -8.353405e-03 -8.066985e-03 -7.752050e-03 -7.412014e-03 -7.051445e-03 -6.675792e-03 -6.290961e-03 -5.902870e-03 -5.517061e-03 -5.138431e-03 -4.771068e-03 -4.418198e-03 -4.082198e-03 -3.764668e-03 -3.466531e-03 -3.188145e-03 -2.929416e-03 -2.689899e-03 -2.468894e-03 -2.265521e-03
1.534640e-04 1.385530e-04 1.197668e-04 9.659022e-05 6.848679e-05 3.490798e-05 -4.697074e-06 -5.087520e-05 -1.041721e-04 -1.651538e-04 -2.344620e-04 -3.129232e-04 -4.017380e-04 -5.027819e-04 -6.190453e-04 -7.552247e-04 -9.184457e-04 -1.119029e-03 -1.371112e-03 -1.692830e-03 -2.105617e-03 -2.632200e-03 -3.292940e-03 -4.100603e-03 -5.054264e-03 -6.133812e-03 -7.297088e-03 -8.481565e-03 -9.611517e-03 -1.060984e-02 -1.141176e-02 -1.197657e-02 -1.229382e-02 -1.238221e-02 -1.228186e-02 -1.204300e-02 -1.171465e-02 -1.133634e-02 -1.093442e-02 -1.052249e-02 -1.010458e-02 -9.679321e-03 -9.243632e-03 -8.795321e-03 -8.334329e-03 -7.862941e-03 -7.385332e-03 -6.906824e-03 -6.433129e-03 -5.969718e-03 -5.521397e-03 -5.092063e-03 -4.684620e-03 -4.301012e-03 -3.942314e-03 -3.608873e-03 -3.300443e-03 -3.016333e-03 -2.755523e-03 -2.516776e-03 -2.298721e-03
1.344394e-04 1.162749e-04 9.352117e-05 6.553944e-05 3.166430e-05 -8.779135e-06 -5.645382e-05 -1.119884e-04 -1.759600e-04 -2.488946e-04 -3.313048e-04 -4.237985e-04 -5.273038e-04 -6.434744e-04 -7.753490e-04 -9.283336e-04 -1.111540e-03 -1.339418e-03 -1.633438e-03 -2.023308e-03 -2.546890e-03 -3.247691e-03 -4.168847e-03 -5.343100e-03 -6.779648e-03 -8.450714e-03 -1.028256e-02 -1.215622e-02 -1.392130e-02 -1.542188e-02 -1.652828e-02 -1.716491e-02 -1.732468e-02 -1.706539e-02 -1.648994e-02 -1.571822e-02 -1.486033e-02 -1.399867e-02 -1.318157e-02 -1.242699e-02 -1.173167e-02 -1.108157e-02 -1.046033e-02 -9.854571e-03 -9.256098e-03 -8.662015e-03 -8.073573e-03 -7.494648e-03 -6.930309e-03 -6.385721e-03 -5.865427e-03 -5.372970e-03 -4.910769e-03 -4.480156e-03 -4.081513e-03 -3.714446e-03 -3.377968e-03 -3.070668e-03 -2.790854e-03 -2.536674e-03 -2.306206e-03
1.162183e-04 9.509624e-05 6.870283e-05 3.627688e-05 -2.971160e-06 -4.982941e-05 -1.050434e-04 -1.692642e-04 -2.429909e-04 -3.265185e-04 -4.199169e-04 -5.230847e-04 -6.359516e-04 -7.589420e-04 -8.938547e-04 -1.045354e-03 -1.223257e-03 -1.445715e-03 -1.743120e-03 -2.162032e-03 -2.767657e-03 -3.642435e-03 -4.877668e-03 -6.555626e-03 -8.722020e-03 -1.135357e-02 -1.433121e-02 -1.743295e-02 -2.035785e-02 -2.278200e-02 -2.443296e-02 -2.515743e-02 -2.495703e-02 -2.397876e-02 -2.246522e-02 -2.068583e-02 -1.887425e-02 -1.719074e-02 -1.571402e-02 -1.445595e-02 -1.338662e-02 -1.245882e-02 -1.162583e-02 -1.085098e-02 -1.011051e-02 -9.392312e-03 -8.692862e-03 -8.013935e-03 -7.359839e-03 -6.735478e-03 -6.145182e-03 -5.592132e-03 -5.078188e-03 -4.603966e-03 -4.169029e-03 -3.772121e-03 -3.411404e-03 -3.084658e-03 -2.789449e-03 -2.523261e-03 -2.283590e-03
9.929895e-05 7.568883e-05 4.620127e-05 9.962765e-06 -3.392452e-05 -8.633440e-05 -1.480447e-04 -2.196369e-04 -3.013663e-04 -3.930074e-04 -4.936963e-04 -6.018195e-04 -7.150433e-04 -8.306580e-04 -9.465105e-04 -1.062934e-03 -1.186205e-03 -1.334072e-03 -1.543680e-03 -1.881420e-03 -2.452652e-03 -3.406782e-03 -4.930323e-03 -7.219281e-03 -1.042525e-02 -1.457993e-02 -1.951938e-02 -2.484424e-02 -2.995250e-02 -3.415776e-02 -3.686476e-02 -3.773831e-02 -3.679578e-02 -3.438456e-02 -3.105780e-02 -2.740516e-02 -2.390741e-02 -2.085987e-02 -1.837093e-02 -1.641057e-02 -1.487482e-02 -1.364044e-02 -1.259891e-02 -1.167080e-02 -1.080656e-02 -9.980597e-03 -9.183599e-03 -8.415600e-03 -7.680910e-03 -6.984869e-03 -6.332077e-03 -5.725614e-03 -5.166895e-03 -4.655824e-03 -4.191104e-03 -3.770563e-03 -3.391457e-03 -3.050717e-03 -2.745145e-03 -2.471554e-03 -2.226863e-03
8.401637e-05 5.853446e-05 2.668483e-05 -1.250116e-05 -6.000647e-05 -1.167551e-04 -1.834971e-04 -2.606366e-04 -3.479889e-04 -4.444524e-04 -5.475977e-04 -6.532020e-04 -7.548209e-04 -8.436044e-04 -9.087534e-04 -9.393155e-04 -9.284140e-04 -8.814313e-04 -8.298533e-04 -8.518777e-04 -1.098548e-03 -1.819022e-03 -3.370376e-03 -6.188615e-03 -1.069594e-02 -1.713620e-02 -2.537283e-02 -3.473704e-02 -4.403874e-02 -5.180500e-02 -5.669590e-02 -5.793365e-02 -5.555042e-02 -5.034082e-02 -4.355026e-02 -3.645581e-02 -3.002636e-02 -2.477514e-02 -2.080041e-02 -1.793099e-02 -1.588371e-02 -1.437716e-02 -1.318913e-02 -1.217049e-02 -1.123529e-02 -1.034262e-02 -9.479165e-03 -8.645933e-03 -7.849633e-03 -7.097776e-03 -6.396328e-03 -5.748904e-03 -5.156792e-03 -4.619340e-03 -4.134450e-03 -3.699063e-03 -3.309548e-03 -2.962018e-03 -2.652544e-03 -2.377312e-03 -2.132716e-03
7.047215e-05 4.383138e-05 1.047659e-05 -3.063650e-05 -8.055338e-05 -1.402183e-04 -2.103064e-04 -2.909594e-04 -3.813881e-04 -4.792919e-04 -5.800484e-04 -6.756371e-04 -7.533168e-04 -7.942013e-04 -7.721515e-04 -6.538994e-04 -4.021706e-04 1.517774e-05 6.054763e-04 1.315504e-03 1.975613e-03 2.227060e-03 1.453655e-03 -1.232400e-03 -6.872983e-03 -1.634521e-02 -2.985964e-02 -4.646307e-02 -6.387570e-02 -7.892801e-02 -8.854203e-02 -9.083414e-02 -8.579453e-02 -7.520544e-02 -6.186152e-02 -4.851860e-02 -3.709400e-02 -2.840599e-02 -2.238260e-02 -1.846873e-02 -1.598926e-02 -1.436394e-02 -1.318332e-02 -1.220035e-02 -1.128847e-02 -1.039690e-02 -9.515839e-03 -8.653724e-03 -7.824243e-03 -7.039981e-03 -6.309967e-03 -5.639280e-03 -5.029572e-03 -4.479891e-03 -3.987498e-03 -3.548554e-03 -3.158644e-03 -2.813158e-03 -2.507542e-03 -2.237461e-03 -1.998882e-03
5.848265e-05 3.142270e-05 -2.543209e-06 -4.451989e-05 -9.560430e-05 -1.567553e-04 -2.285714e-04 -3.109265e-04 -4.023926e-04 -4.993482e-04 -5.946396e-04 -6.756310e-04 -7.214763e-04 -6.995098e-04 -5.608995e-04 -2.363043e-04 3.664454e-04 1.358222e-03 2.849646e-03 4.903548e-03 7.440421e-03 1.008136e-02 1.193740e-02 1.141876e-02 6.244569e-03 -6.079631e-03 -2.714775e-02 -5.618238e-02 -8.910929e-02 -1.191834e-01 -1.392739e-01 -1.446989e-01 -1.350970e-01 -1.143778e-01 -8.880318e-02 -6.431478e-02 -4.462432e-02 -3.083887e-02 -2.224148e-02 -1.736277e-02 -1.475373e-02 -1.333005e-02 -1.241604e-02 -1.165452e-02 -1.089204e-02 -1.008654e-02 -9.247044e-03 -8.399790e-03 -7.571720e-03 -6.783973e-03 -6.050455e-03 -5.378610e-03 -4.770913e-03 -4.226371e-03 -3.741787e-03 -3.312714e-03 -2.934120e-03 -2.600844e-03 -2.307877e-03 -2.050519e-03 -1.824471e-03
4.755768e-05 2.076378e-05 -1.298409e-05 -5.484731e-05 -1.059856e-04 -1.674095e-04 -2.397177e-04 -3.226500e-04 -4.143472e-04 -5.101533e-04 -6.007144e-04 -6.690230e-04 -6.859247e-04 -6.034893e-04 -3.456426e-04 2.042053e-04 1.217592e-03 2.933490e-03 5.658274e-03 9.730320e-03 1.540746e-02 2.261514e-02 3.049460e-02 3.677024e-02 3.719919e-02 2.579014e-02 -3.243265e-03 -5.158273e-02 -1.130439e-01 -1.736993e-01 -2.171485e-01 -2.316882e-01 -2.152915e-01 -1.761614e-01 -1.282924e-01 -8.450707e-02 -5.175488e-02 -3.094988e-02 -1.954719e-02 -1.415751e-02 -1.198746e-02 -1.122468e-02 -1.088862e-02 -1.054253e-02 -1.004777e-02 -9.403469e-03 -8.657901e-03 -7.866257e-03 -7.074147e-03 -6.313594e-03 -5.604231e-03 -4.956131e-03 -4.372675e-03 -3.852912e-03 -3.393322e-03 -2.989026e-03 -2.634590e-03 -2.324531e-03 -2.053605e-03 -1.816968e-03 -1.610242e-03
3.691926e-05 1.094193e-05 -2.192293e-05 -6.290462e-05 -1.132654e-04 -1.741567e-04 -2.463504e-04 -3.297615e-04 -4.226241e-04 -5.201001e-04 -6.119687e-04 -6.788392e-04 -6.860341e-04 -5.738685e-04 -2.425395e-04 4.706248e-04 1.823736e-03 4.213065e-03 8.219848e-03 1.463868e-02 2.443007e-02 3.847714e-02 5.694347e-02 7.798758e-02 9.579553e-02 9.878344e-02 7.079553e-02 -5.535278e-04 -1.101500e-01 -2.305619e-01 -3.250874e-01 -3.653660e-01 -3.425208e-01 -2.719048e-01 -1.849289e-01 -1.094808e-01 -5.767488e-02 -2.824537e-02 -1.437745e-02 -9.264714e-03 -8.174257e-03 -8.457661e-03 -8.893009e-03 -9.048744e-03 -8.860770e-03 -8.401567e-03 -7.772357e-03 -7.061274e-03 -6.332392e-03 -5.627123e-03 -4.969333e-03 -4.370634e-03 -3.834684e-03 -3.360319e-03 -2.943688e-03 -2.579634e-03 -2.262553e-03 -1.986900e-03 -1.747465e-03 -1.539506e-03 -1.358796e-03
2.556381e-05 7.531089e-07 -3.080607e-05 -7.043688e-05 -1.195687e-04 -1.796282e-04 -2.518165e-04 -3.366891e-04 -4.333927e-04 -5.383184e-04 -6.427647e-04 -7.289280e-04 -7.630973e-04 -6.842112e-04 -3.848329e-04 3.199892e-04 1.742522e-03 4.399101e-03 9.121323e-03 1.719970e-02 3.052641e-02 5.162608e-02 8.330455e-02 1.273628e-01 1.813569e-01 2.318669e-01 2.450935e-01 1.715052e-01 -6.373320e-03 -2.340705e-01 -4.331675e-01 -5.445822e-01 -5.312586e-01 -4.110055e-01 -2.593664e-01 -1.379883e-01 -6.276996e-02 -2.457684e-02 -9.010591e-03 -4.683160e-03 -4.784694e-03 -5.996562e-03 -7.018223e-03 -7.512059e-03 -7.518280e-03 -7.181794e-03 -6.644821e-03 -6.015303e-03 -5.365156e-03 -4.737744e-03 -4.156431e-03 -3.631612e-03 -3.165778e-03 -2.756925e-03 -2.400720e-03 -2.091839e-03 -1.824741e-03 -1.594103e-03 -1.395031e-03 -1.223151e-03 -1.074623e-03
1.236326e-05 -1.117069e-05 -4.128577e-05 -7.943238e-05 -1.272820e-04 -1.866877e-04 -2.595679e-04 -3.476488e-04 -4.519474e-04 -5.717907e-04 -7.030116e-04 -8.346923e-04 -9.433596e-04 -9.827292e-04 -8.657252e-04 -4.332213e-04 5.996852e-04 2.734450e-03 6.838459e-03 1.438104e-02 2.778423e-02 5.090179e-02 8.961731e-02 1.525804e-01 2.520021e-01 4.007732e-01 5.791121e-01 6.331891e-01 3.854118e-01 5.752547e-03 -3.571635e-01 -6.658577e-01 -7.537272e-01 -5.540402e-01 -3.199231e-01 -1.616136e-01 -6.965254e-02 -2.510500e-02 -8.008314e-03 -3.622381e-03 -3.815596e-03 -4.989932e-03 -5.892428e-03 -6.267173e-03 -6.199012e-03 -5.843458e-03 -5.335351e-03 -4.769206e-03 -4.203681e-03 -3.671449e-03 -3.188181e-03 -2.759196e-03 -2.383921e-03 -2.058716e-03 -1.778576e-03 -1.538113e-03 -1.332092e-03 -1.155694e-03 -1.004626e-03 -8.751410e-04 -7.640090e-04
-3.807335e-06 -2.620066e-05 -5.501595e-05 -9.185989e-05 -1.387086e-04 -1.979660e-04 -2.725071e-04 -3.656766e-04 -4.811876e-04 -6.228142e-04 -7.936801e-04 -9.947775e-04 -1.222045e-03 -1.460785e-03 -1.675199e-03 -1.789083e-03 -1.650671e-03 -9.695639e-04 7.942737e-04 4.621136e-03 1.225029e-02 2.671015e-02 5.328907e-02 1.019336e-01 1.956257e-01 4.022693e-01 9.114884e-01 1.645456e+00 1.251627e+00 1.257728e+00 9.605060e-01 2.108741e-01 -4.031791e-01 -6.739914e-02 -2.363150e-01 -1.691133e-01 -7.997627e-02 -3.296219e-02 -1.398648e-02 -7.731301e-03 -6.138510e-03 -5.845598e-03 -5.693564e-03 -5.394652e-03 -4.949335e-03 -4.424329e-03 -3.881221e-03 -3.360872e-03 -2.885406e-03 -2.463905e-03 -2.097513e-03 -1.783067e-03 -1.515392e-03 -1.288666e-03 -1.097155e-03 -9.355852e-04 -7.992874e-04 -6.842269e-04 -5.869703e-04 -5.046244e-04 -4.347661e-04
-2.393368e-05 -4.554168e-05 -7.344188e-05 -1.094090e-04 -1.557493e-04 -2.154715e-04 -2.925138e-04 -3.920495e-04 -5.208920e-04 -6.880338e-04 -9.053548e-04 -1.188537e-03 -1.558218e-03 -2.041383e-03 -2.672918e-03 -3.497111e-03 -4.568664e-03 -5.952564e-03 -7.722578e-03 -9.961130e-03 -1.277540e-02 -1.638308e-02 -2.142727e-02 -2.992948e-02 -4.775693e-02 -9.017167e-02 -1.978826e-01 -1.005944e+00 1.488426e+00 2.652494e+00 2.470448e+00 2.516929e+00 5.321966e+00 -4.402615e-01 -3.441714e-01 -1.531011e-01 -7.154120e-02 -3.668607e-02 -2.123259e-02 -1.386612e-02 -9.918357e-03 -7.492589e-03 -5.820433e-03 -4.580382e-03 -3.625341e-03 -2.877246e-03 -2.287238e-03 -1.820662e-03 -1.451199e-03 -1.158284e-03 -9.257112e-04 -7.407031e-04 -5.932074e-04 -4.753300e-04 -3.808788e-04 -3.049981e-04 -2.438770e-04 -1.945202e-04 -1.545688e-04 -1.221601e-04 -9.581934e-05
-4.873785e-05 -7.008045e-05 -9.761860e-05 -1.332800e-04 -1.796738e-04 -2.403660e-04 -3.202811e-04 -4.262951e-04 -5.681220e-04 -7.596574e-04 -1.021041e-03 -1.381869e-03 -1.886264e-03 -2.600995e-03 -3.628661e-03 -5.129362e-03 -7.356798e-03 -1.071905e-02 -1.588209e-02 -2.394859e-02 -3.677432e-02 -5.755855e-02 -9.207139e-02 -1.516778e-01 -2.621218e-01 -4.892471e-01 -9.686724e-01 -1.488106e+00 -1.668859e+00 -1.573519e+00 -1.219739e+00 -5.981742e-01 -1.598694e-01 9.960815e-02 7.756386e-02 2.072879e-02 -1.072160e-02 -2.065628e-02 -2.006833e-02 -1.597447e-02 -1.155756e-02 -7.902727e-03 -5.188448e-03 -3.281031e-03 -1.982545e-03 -1.116593e-03 -5.482176e-04 -1.809705e-04 5.173898e-05 1.950616e-04 2.793284e-04 3.248246e-04 3.450908e-04 3.491579e-04 3.430434e-04 3.307500e-04 3.149305e-04 2.973316e-04 2.790910e-04 2.609372e-04 2.433233e-04
-7.858357e-05 -1.002736e-04 -1.280848e-04 -1.640538e-04 -2.110098e-04 -2.729280e-04 -3.554577e-04 -4.667233e-04 -6.185516e-04 -8.283724e-04 -1.122198e-03 -1.539336e-03 -2.139932e-03 -3.017124e-03 -4.316776e-03 -6.269630e-03 -9.243651e-03 -1.382861e-02 -2.097048e-02 -3.217823e-02 -4.982576e-02 -7.755850e-02 -1.207846e-01 -1.872054e-01 -2.871871e-01 -4.315694e-01 -6.125792e-01 -7.478299e-01 -6.811504e-01 -3.825961e-01 -1.232893e-02 3.236627e-01 5.339414e-01 5.090915e-01 3.187199e-01 1.461283e-01 4.806366e-02 4.835706e-03 -9.440549e-03 -1.123361e-02 -8.810080e-03 -5.671941e-03 -3.025428e-03 -1.119677e-03 1.306853e-04 8.896230e-04 1.309248e-03 1.506604e-03 1.564432e-03 1.538483e-03 1.465149e-03 1.367587e-03 1.260168e-03 1.151546e-03 1.046713e-03 9.483447e-04 8.576843e-04 7.751030e-04 7.004611e-04 6.333359e-04 5.731626e-04
-1.134237e-04 -1.360898e-04 -1.648059e-04 -2.016499e-04 -2.495470e-04 -3.126596e-04 -3.969734e-04 -5.111874e-04 -6.680757e-04 -8.865881e-04 -1.195112e-03 -1.636570e-03 -2.276417e-03 -3.215205e-03 -4.608259e-03 -6.696242e-03 -9.851703e-03 -1.464750e-02 -2.195082e-02 -3.303597e-02 -4.967801e-02 -7.411861e-02 -1.086646e-01 -1.545017e-01 -2.091841e-01 -2.624477e-01 -2.913101e-01 -2.604789e-01 -1.418928e-01 4.839624e-02 2.476577e-01 3.915987e-01 4.399924e-01 3.855404e-01 2.682885e-01 1.507970e-01 6.881536e-02 2.406454e-02 4.429692e-03 -1.884327e-03 -2.412977e-03 -1.035865e-03 5.690151e-04 1.825149e-03 2.630772e-03 3.053361e-03 3.198414e-03 3.161296e-03 3.014643e-03 2.809121e-03 2.578046e-03 2.342248e-03 2.114044e-03 1.900161e-03 1.703773e-03 1.525870e-03 1.366151e-03 1.223604e-03 1.096863e-03 9.844284e-04 8.848003e-04
-1.527951e-04 -1.770095e-04 -2.071857e-04 -2.453637e-04 -2.944224e-04 -3.584628e-04 -4.433802e-04 -5.577215e-04 -7.139783e-04 -9.305414e-04 -1.234664e-03 -1.666948e-03 -2.288124e-03 -3.189180e-03 -4.506266e-03 -6.441947e-03 -9.293919e-03 -1.348995e-02 -1.962115e-02 -2.844990e-02 -4.083790e-02 -5.748920e-02 -7.834963e-02 -1.015198e-01 -1.217905e-01 -1.295858e-01 -1.120502e-01 -5.821893e-02 3.213115e-02 1.418634e-01 2.408664e-01 3.005115e-01 3.064841e-01 2.638793e-01 1.942280e-01 1.236008e-01 6.904747e-02 3.460214e-02 1.625890e-02 8.038256e-03 5.133396e-03 4.562728e-03 4.771471e-03 5.070698e-03 5.219510e-03 5.178128e-03 4.981320e-03 4.680972e-03 4.323750e-03 3.944818e-03 3.568023e-03 3.208143e-03 2.873396e-03 2.567551e-03 2.291518e-03 2.044478e-03 1.824639e-03 1.629731e-03 1.457320e-03 1.304994e-03 1.170468e-03
-1.958584e-04 -2.220780e-04 -2.541376e-04 -2.939622e-04 -3.442505e-04 -4.088155e-04 -4.930847e-04 -6.048330e-04 -7.552577e-04 -9.605543e-04 -1.244212e-03 -1.640329e-03 -2.198329e-03 -2.989487e-03 -4.115571e-03 -5.719406e-03 -7.995791e-03 -1.119811e-02 -1.562971e-02 -2.159842e-02 -2.929690e-02 -3.855880e-02 -4.845138e-02 -5.674853e-02 -5.953224e-02 -5.145975e-02 -2.733135e-02 1.497287e-02 7.145919e-02 1.312985e-01 1.800492e-01 2.055500e-01 2.030170e-01 1.766364e-01 1.370569e-01 9.617145e-02 6.229527e-02 3.846446e-02 2.376770e-02 1.564527e-02 1.154140e-02 9.579552e-03 8.610145e-03 8.021507e-03 7.531660e-03 7.035148e-03 6.509526e-03 5.965026e-03 5.420385e-03 4.892766e-03 4.394586e-03 3.933342e-03 3.512518e-03 3.132704e-03 2.792585e-03 2.489707e-03 2.221026e-03 1.983276e-03 1.773205e-03 1.587715e-03 1.423938e-03
-2.414744e-04 -2.699991e-04 -3.041982e-04 -3.458182e-04 -3.972723e-04 -4.619164e-04 -5.444436e-04 -6.514426e-04 -7.921877e-04 -9.797425e-04 -1.232481e-03 -1.576128e-03 -2.046407e-03 -2.692230e-03 -3.579097e-03 -4.791699e-03 -6.433405e-03 -8.618091e-03 -1.144621e-02 -1.495271e-02 -1.901138e-02 -2.318543e-02 -2.653856e-02 -2.747837e-02 -2.378887e-02 -1.306426e-02 6.339961e-03 3.405989e-02 6.684633e-02 9.885244e-02 1.233461e-01 1.351657e-01 1.326637e-01 1.181395e-01 9.660393e-02 7.360635e-02 5.331389e-02 3.770554e-02 2.689180e-02 1.995298e-02 1.569887e-02 1.310076e-02 1.143132e-02 1.024241e-02 9.287848e-03 8.447226e-03 7.669876e-03 6.939550e-03 6.254548e-03 5.617653e-03 5.031651e-03 4.497756e-03 4.015388e-03 3.582495e-03 3.196008e-03 2.852271e-03 2.547379e-03 2.277419e-03 2.038627e-03 1.827489e-03 1.640784e-03
-2.883057e-04 -3.192563e-04 -3.556676e-04 -3.990643e-04 -4.515085e-04 -5.158030e-04 -5.957708e-04 -6.966330e-04 -8.255148e-04 -9.921064e-04 -1.209494e-03 -1.495146e-03 -1.871963e-03 -2.369142e-03 -3.022309e-03 -3.871876e-03 -4.957766e-03 -6.307540e-03 -7.913773e-03 -9.696013e-03 -1.144470e-02 -1.275205e-02 -1.295130e-02 -1.111078e-02 -6.150461e-03 2.861945e-03 1.625342e-02 3.328210e-02 5.193979e-02 6.925947e-02 8.213024e-02 8.831054e-02 8.717005e-02 7.980830e-02 6.851992e-02 5.590618e-02 4.407329e-02 3.423098e-02 2.672621e-02 2.133101e-02 1.756634e-02 1.493337e-02 1.302714e-02 1.156435e-02 1.036726e-02 9.334078e-03 8.411161e-03 7.572408e-03 6.805912e-03 6.106168e-03 5.469962e-03 4.894440e-03 4.376392e-03 3.912107e-03 3.497493e-03 3.128260e-03 2.800106e-03 2.508853e-03 2.250552e-03 2.021541e-03 1.818474e-03
-3.349284e-04 -3.682430e-04 -4.067571e-04 -4.517517e-04 -5.049120e-04 -5.684615e-04 -6.453361e-04 -7.394046e-04 -8.557387e-04 -1.000926e-03 -1.183392e-03 -1.413673e-03 -1.704477e-03 -2.070278e-03 -2.525971e-03 -3.083837e-03 -3.747722e-03 -4.503013e-03 -5.300975e-03 -6.036833e-03 -6.523455e-03 -6.467505e-03 -5.462452e-03 -3.020213e-03 1.336163e-03 7.912236e-03 1.664497e-02 2.694594e-02 3.768581e-02 4.738622e-02 5.459112e-02 5.828539e-02 5.818506e-02 5.477477e-02 4.908822e-02 4.234560e-02 3.561124e-02 2.959272e-02 2.461017e-02 2.068425e-02 1.766513e-02 1.534375e-02 1.352176e-02 1.204242e-02 1.079566e-02 9.710681e-03 8.744905e-03 7.873906e-03 7.083857e-03 6.366544e-03 5.716388e-03 5.128841e-03 4.599622e-03 4.124438e-03 3.698937e-03 3.318770e-03 2.979682e-03 2.677592e-03 2.408658e-03 2.169317e-03 1.956308e-03
-3.799415e-04 -4.153895e-04 -4.557308e-04 -5.020007e-04 -5.555148e-04 -6.179449e-04 -6.914085e-04 -7.785694e-04 -8.827374e-04 -1.007945e-03 -1.158960e-03 -1.341148e-03 -1.560066e-03 -1.820572e-03 -2.125143e-03 -2.470991e-03 -2.845482e-03 -3.219398e-03 -3.537936e-03 -3.710172e-03 -3.599366e-03 -3.018844e-03 -1.740767e-03 4.739129e-04 3.819182e-03 8.365954e-03 1.398216e-02 2.028489e-02 2.666013e-02 3.236632e-02 3.670151e-02 3.917938e-02 3.964739e-02 3.830233e-02 3.560261e-02 3.211964e-02 2.838939e-02 2.481284e-02 2.162266e-02 1.890364e-02 1.663983e-02 1.476378e-02 1.319376e-02 1.185535e-02 1.069022e-02 9.656979e-03 8.728218e-03 7.886513e-03 7.120866e-03 6.424014e-03 5.790647e-03 5.216346e-03 4.697025e-03 4.228686e-03 3.807350e-03 3.429079e-03 3.090025e-03 2.786492e-03 2.514982e-03 2.272229e-03 2.055218e-03
-4.220627e-04 -4.592716e-04 -5.010272e-04 -5.481316e-04 -6.015606e-04 -6.624960e-04 -7.323548e-04 -8.128074e-04 -9.057709e-04 -1.013351e-03 -1.137694e-03 -1.280680e-03 -1.443376e-03 -1.625109e-03 -1.822003e-03 -2.024798e-03 -2.215814e-03 -2.365047e-03 -2.425710e-03 -2.330091e-03 -1.987407e-03 -1.286232e-03 -1.046108e-04 1.669628e-03 4.108347e-03 7.207073e-03 1.085385e-02 1.481701e-02 1.876401e-02 2.231428e-02 2.511508e-02 2.691767e-02 2.762801e-02 2.731519e-02 2.617719e-02 2.447968e-02 2.249091e-02 2.043282e-02 1.845764e-02 1.664810e-02 1.503245e-02 1.360442e-02 1.234102e-02 1.121498e-02 1.020164e-02 9.281635e-03 8.441034e-03 7.670289e-03 6.962904e-03 6.314243e-03 5.720655e-03 5.178911e-03 4.685895e-03 4.238465e-03 3.833427e-03 3.467560e-03 3.137665e-03 2.840623e-03 2.573438e-03 2.333276e-03 2.117487e-03
-4.602031e-04 -4.986939e-04 -5.413507e-04 -5.887633e-04 -6.416107e-04 -7.006623e-04 -7.667685e-04 -8.408305e-04 -9.237366e-04 -1.016242e-03 -1.118765e-03 -1.231050e-03 -1.351652e-03 -1.477173e-03 -1.601174e-03 -1.712741e-03 -1.794686e-03 -1.821553e-03 -1.757739e-03 -1.556399e-03 -1.160067e-03 -5.042206e-04 4.750836e-04 1.829053e-03 3.580442e-03 5.707293e-03 8.131104e-03 1.071510e-02 1.327665e-02 1.561375e-02 1.754015e-02 1.891960e-02 1.968894e-02 1.986341e-02 1.952385e-02 1.879138e-02 1.779875e-02 1.666638e-02 1.548812e-02 1.432710e-02 1.321908e-02 1.217956e-02 1.121147e-02 1.031143e-02 9.473976e-03 8.693803e-03 7.966688e-03 7.289551e-03 6.660167e-03 6.076787e-03 5.537815e-03 5.041590e-03 4.586278e-03 4.169836e-03 3.790035e-03 3.444514e-03 3.130837e-03 2.846555e-03 2.589258e-03 2.356615e-03 2.146409e-03
-4.935149e-04 -5.327435e-04 -5.757294e-04 -6.228770e-04 -6.746152e-04 -7.313811e-04 -7.935878e-04 -8.615715e-04 -9.355042e-04 -1.015259e-03 -1.100204e-03 -1.188913e-03 -1.278738e-03 -1.365261e-03 -1.441560e-03 -1.497348e-03 -1.518016e-03 -1.483735e-03 -1.368876e-03 -1.142125e-03 -7.677903e-04 -2.087868e-04 5.683565e-04 1.586608e-03 2.850495e-03 4.338775e-03 6.000036e-03 7.753465e-03 9.496146e-03 1.111637e-02 1.251037e-02 1.359841e-02 1.433601e-02 1.471749e-02 1.477158e-02 1.455110e-02 1.412022e-02 1.354293e-02 1.287483e-02 1.215922e-02 1.142676e-02 1.069735e-02 9.983056e-03 9.290810e-03 8.624609e-03 7.986918e-03 7.379457e-03 6.803538e-03 6.260150e-03 5.749933e-03 5.273136e-03 4.829586e-03 4.418704e-03 4.039539e-03 3.690831e-03 3.371080e-03 3.078619e-03 2.811681e-03 2.568454e-03 2.347131e-03 2.145944e-03
-5.214149e-04 -5.608115e-04 -6.035374e-04 -6.498388e-04 -6.999412e-04 -7.540227e-04 -8.121728e-04 -8.743315e-04 -9.402006e-04 -1.009117e-03 -1.079879e-03 -1.150508e-03 -1.217949e-03 -1.277684e-03 -1.323289e-03 -1.345952e-03 -1.334013e-03 -1.272650e-03 -1.143857e-03 -9.269337e-04 -5.997059e-04 -1.406634e-04 4.679517e-04 1.236314e-03 2.162989e-03 3.231586e-03 4.409137e-03 5.647117e-03 6.885548e-03 8.059787e-03 9.108791e-03 9.983051e-03 1.065039e-02 1.109842e-02 1.133332e-02 1.137580e-02 1.125551e-02 1.100543e-02 1.065746e-02 1.023952e-02 9.774443e-03 9.279986e-03 8.769593e-03 8.253380e-03 7.739051e-03 7.232605e-03 6.738804e-03 6.261456e-03 5.803561e-03 5.367401e-03 4.954588e-03 4.566128e-03 4.202478e-03 3.863622e-03 3.549149e-03 3.258330e-03 2.990198e-03 2.743614e-03 2.517330e-03 2.310036e-03 2.120401e-03
-5.435831e-04 -5.825891e-04 -6.244860e-04 -6.693889e-04 -7.173619e-04 -7.683879e-04 -8.223258e-04 -8.788515e-04 -9.373779e-04 -9.969479e-04 -1.056097e-03 -1.112677e-03 -1.163651e-03 -1.204844e-03 -1.230690e-03 -1.233985e-03 -1.205702e-03 -1.134953e-03 -1.009162e-03 -8.145932e-04 -5.372933e-04 -1.645238e-04 3.133714e-04 9.008305e-04 1.594992e-03 2.384118e-03 3.246994e-03 4.153714e-03 5.067946e-03 5.950493e-03 6.763527e-03 7.474718e-03 8.060417e-03 8.507328e-03 8.812495e-03 8.981824e-03 9.027702e-03 8.966333e-03 8.815343e-03 8.591991e-03 8.312063e-03 7.989386e-03 7.635760e-03 7.261137e-03 6.873877e-03 6.481002e-03 6.088396e-03 5.700951e-03 5.322673e-03 4.956761e-03 4.605680e-03 4.271227e-03 3.954609e-03 3.656520e-03 3.377220e-03 3.116611e-03 2.874311e-03 2.649723e-03 2.442090e-03 2.250545e-03 2.074159e-03
-5.599426e-04 -5.980408e-04 -6.385907e-04 -6.816014e-04 -7.270127e-04 -7.746650e-04 -8.242600e-04 -8.753077e-04 -9.270600e-04 -9.784256e-04 -1.027867e-03 -1.073279e-03 -1.111848e-03 -1.139910e-03 -1.152809e-03 -1.144789e-03 -1.108952e-03 -1.037326e-03 -9.210867e-04 -7.510029e-04 -5.181164e-04 -2.146759e-04 1.647327e-04 6.219731e-04 1.154249e-03 1.753326e-03 2.405311e-03 3.091159e-03 3.787951e-03 4.470802e-03 5.115143e-03 5.698968e-03 6.204688e-03 6.620278e-03 6.939627e-03 7.162119e-03 7.291674e-03 7.335519e-03 7.302931e-03 7.204158e-03 7.049605e-03 6.849290e-03 6.612540e-03 6.347845e-03 6.062810e-03 5.764167e-03 5.457798e-03 5.148769e-03 4.841371e-03 4.539161e-03 4.245010e-03 3.961158e-03 3.689280e-03 3.430547e-03 3.185700e-03 2.955115e-03 2.738867e-03 2.536792e-03 2.348541e-03 2.173622e-03 2.011448e-03
-5.706273e-04 -6.073636e-04 -6.461216e-04 -6.868268e-04 -7.293259e-04 -7.733600e-04 -8.185290e-04 -8.642484e-04 -9.096961e-04 -9.537476e-04 -9.949028e-04 -1.031203e-03 -1.060146e-03 -1.078600e-03 -1.082742e-03 -1.068021e-03 -1.029179e-03 -9.603537e-04 -8.552912e-04 -7.076822e-04 -5.116427e-04 -2.623206e-04 4.341037e-05 4.062441e-04 8.238258e-04 1.290347e-03 1.796463e-03 2.329609e-03 2.874726e-03 3.415332e-03 3.934796e-03 4.417636e-03 4.850637e-03 5.223656e-03 5.530020e-03 5.766522e-03 5.933094e-03 6.032261e-03 6.068504e-03 6.047636e-03 5.976252e-03 5.861288e-03 5.709693e-03 5.528192e-03 5.323135e-03 5.100382e-03 4.865249e-03 4.622462e-03 4.376149e-03 4.129838e-03 3.886482e-03 3.648486e-03 3.417754e-03 3.195733e-03 2.983471e-03 2.781668e-03 2.590730e-03 2.410820e-03 2.241906e-03 2.083801e-03 1.936196e-03
-5.759403e-04 -6.109380e-04 -6.475455e-04 -6.856245e-04 -7.249550e-04 -7.652120e-04 -8.059362e-04 -8.464988e-04 -8.860608e-04 -9.235260e-04 -9.574904e-04 -9.861884e-04 -1.007442e-03 -1.018619e-03 -1.016606e-03 -9.978166e-04 -9.582329e-04 -8.935143e-04 -7.991704e-04 -6.708149e-04 -5.044987e-04 -2.971081e-04 -4.679969e-05 2.465750e-04 5.811130e-04 9.526371e-04 1.354664e-03 1.778599e-03 2.214164e-03 2.650018e-03 3.074507e-03 3.476439e-03 3.845800e-03 4.174309e-03 4.455776e-03 4.686236e-03 4.863888e-03 4.988882e-03 5.063010e-03 5.089352e-03 5.071927e-03 5.015373e-03 4.924671e-03 4.804917e-03 4.661146e-03 4.498187e-03 4.320566e-03 4.132429e-03 3.937498e-03 3.739046e-03 3.539891e-03 3.342411e-03 3.148557e-03 2.959895e-03 2.777635e-03 2.602674e-03 2.435637e-03 2.276920e-03 2.126721e-03 1.985085e-03 1.851925e-03
-5.763116e-04 -6.092775e-04 -6.434672e-04 -6.786956e-04 -7.146977e-04 -7.511089e-04 -7.874413e-04 -8.230566e-04 -8.571358e-04 -8.886463e-04 -9.163077e-04 -9.385595e-04 -9.535329e-04 -9.590329e-04 -9.525366e-04 -9.312149e-04 -8.919856e-04 -8.316068e-04 -7.468158e-04 -6.345163e-04 -4.920102e-04 -3.172630e-04 -1.091826e-04 1.321168e-04 4.051010e-04 7.066867e-04 1.032230e-03 1.375647e-03 1.729676e-03 2.086254e-03 2.436972e-03 2.773564e-03 3.088376e-03 3.374754e-03 3.627335e-03 3.842211e-03 4.016973e-03 4.150650e-03 4.243569e-03 4.297170e-03 4.313781e-03 4.296407e-03 4.248518e-03 4.173861e-03 4.076298e-03 3.959668e-03 3.827679e-03 3.683827e-03 3.531327e-03 3.373083e-03 3.211659e-03 3.049277e-03 2.887821e-03 2.728856e-03 2.573645e-03 2.423183e-03 2.278223e-03 2.139307e-03 2.006797e-03 1.880901e-03 1.761701e-03
-5.722560e-04 -6.029804e-04 -6.345745e-04 -6.668210e-04 -6.994274e-04 -7.320096e-04 -7.640736e-04 -7.949953e-04 -8.239983e-04 -8.501317e-04 -8.722487e-04 -8.889877e-04 -8.987596e-04 -8.997440e-04 -8.898991e-04 -8.669904e-04 -8.286416e-04 -7.724130e-04 -6.959099e-04 -5.969203e-04 -4.735774e-04 -3.245397e-04 -1.491740e-04 5.227634e-05 2.785586e-04 5.273334e-04 7.951710e-04 1.077631e-03 1.369426e-03 1.664659e-03 1.957118e-03 2.240588e-03 2.509168e-03 2.757551e-03 2.981244e-03 3.176721e-03 3.341504e-03 3.474166e-03 3.574280e-03 3.642324e-03 3.679546e-03 3.687826e-03 3.669521e-03 3.627325e-03 3.564131e-03 3.482919e-03 3.386650e-03 3.278186e-03 3.160230e-03 3.035274e-03 2.905575e-03 2.773133e-03 2.639690e-03 2.506732e-03 2.375505e-03 2.247022e-03 2.122095e-03 2.001348e-03 1.885241e-03 1.774097e-03 1.668116e-03
-5.643357e-04 -5.926874e-04 -6.215909e-04 -6.508088e-04 -6.800348e-04 -7.088808e-04 -7.368627e-04 -7.633856e-04 -7.877290e-04 -8.090317e-04 -8.262793e-04 -8.382952e-04 -8.437361e-04 -8.410976e-04 -8.287285e-04 -8.048606e-04 -7.676540e-04 -7.152618e-04 -6.459131e-04 -5.580143e-04 -4.502653e-04 -3.217827e-04 -1.722229e-04 -1.891596e-06 1.881710e-04 3.961433e-04 6.194228e-04 8.546795e-04 1.097964e-03 1.344863e-03 1.590694e-03 1.830712e-03 2.060336e-03 2.275336e-03 2.472015e-03 2.647326e-03 2.798963e-03 2.925385e-03 3.025816e-03 3.100189e-03 3.149079e-03 3.173607e-03 3.175335e-03 3.156163e-03 3.118222e-03 3.063783e-03 2.995166e-03 2.914671e-03 2.824520e-03 2.726806e-03 2.623464e-03 2.516250e-03 2.406723e-03 2.296250e-03 2.186002e-03 2.076967e-03 1.969959e-03 1.865635e-03 1.764510e-03 1.666974e-03 1.573305e-03
-5.531284e-04 -5.790469e-04 -6.052374e-04 -6.314527e-04 -6.573834e-04 -6.826486e-04 -7.067851e-04 -7.292371e-04 -7.493460e-04 -7.663417e-04 -7.793357e-04 -7.873182e-04 -7.891596e-04 -7.836193e-04 -7.693627e-04 -7.449885e-04 -7.090681e-04 -6.601970e-04 -5.970592e-04 -5.185019e-04 -4.236188e-04 -3.118364e-04 -1.829976e-04 -3.743484e-05 1.239750e-04 2.997814e-04 4.879626e-04 6.859642e-04 8.907720e-04 1.099019e-03 1.307114e-03 1.511392e-03 1.708263e-03 1.894359e-03 2.066658e-03 2.222590e-03 2.360109e-03 2.477733e-03 2.574554e-03 2.650221e-03 2.704896e-03 2.739201e-03 2.754139e-03 2.751028e-03 2.731415e-03 2.697006e-03 2.649596e-03 2.591005e-03 2.523031e-03 2.447404e-03 2.365754e-03 2.279588e-03 2.190274e-03 2.099033e-03 2.006939e-03 1.914916e-03 1.823749e-03 1.734093e-03 1.646481e-03 1.561335e-03 1.478982e-03
-5.392027e-04 -5.626877e-04 -5.862037e-04 -6.095015e-04 -6.322773e-04 -6.541652e-04 -6.747302e-04 -6.934604e-04 -7.097617e-04 -7.229521e-04 -7.322596e-04 -7.368223e-04 -7.356940e-04 -7.278540e-04 -7.122241e-04 -6.876929e-04 -6.531491e-04 -6.075221e-04 -5.498315e-04 -4.792431e-04 -3.951286e-04 -2.971273e-04 -1.852030e-04 -5.969393e-05 7.865134e-05 2.286561e-04 3.887195e-04 5.568442e-04 7.306884e-04 9.076405e-04 1.084910e-03 1.259631e-03 1.428972e-03 1.590240e-03 1.740976e-03 1.879038e-03 2.002659e-03 2.110488e-03 2.201610e-03 2.275537e-03 2.332192e-03 2.371869e-03 2.395191e-03 2.403052e-03 2.396561e-03 2.376985e-03 2.345699e-03 2.304127e-03 2.253709e-03 2.195853e-03 2.131916e-03 2.063172e-03 1.990799e-03 1.915870e-03 1.839344e-03 1.762067e-03 1.684771e-03 1.608084e-03 1.532532e-03 1.458547e-03 1.386478e-03
-5.230990e-04 -5.441994e-04 -5.651279e-04 -5.856395e-04 -6.054417e-04 -6.241894e-04 -6.414796e-04 -6.568472e-04 -6.697611e-04 -6.796227e-04 -6.857650e-04 -6.874567e-04 -6.839073e-04 -6.742790e-04 -6.577013e-04 -6.332928e-04 -6.001884e-04 -5.575713e-04 -5.047114e-04 -4.410069e-04 -3.660281e-04 -2.795610e-04 -1.816475e-04 -7.261913e-05 4.687958e-05 1.758799e-04 3.130939e-04 4.569352e-04 6.055574e-04 7.569067e-04 9.087879e-04 1.058939e-03 1.205109e-03 1.345138e-03 1.477024e-03 1.598994e-03 1.709544e-03 1.807481e-03 1.891940e-03 1.962389e-03 2.018615e-03 2.060708e-03 2.089030e-03 2.104174e-03 2.106923e-03 2.098212e-03 2.079081e-03 2.050639e-03 2.014024e-03 1.970378e-03 1.920812e-03 1.866394e-03 1.808126e-03 1.746933e-03 1.683661e-03 1.619067e-03 1.553821e-03 1.488507e-03 1.423628e-03 1.359606e-03 1.296796e-03
-5.053167e-04 -5.241201e-04 -5.425848e-04 -5.604744e-04 -5.775120e-04 -5.933767e-04 -6.076998e-04 -6.200625e-04 -6.299947e-04 -6.369739e-04 -6.404277e-04 -6.397376e-04 -6.342457e-04 -6.232654e-04 -6.060950e-04 -5.820359e-04 -5.504146e-04 -5.106087e-04 -4.620758e-04 -4.043850e-04 -3.372491e-04 -2.605557e-04 -1.743955e-04 -7.908549e-05 2.481569e-05 1.365015e-04 2.549222e-04 3.788018e-04 5.066657e-04 6.368802e-04 7.677002e-04 8.973239e-04 1.023950e-03 1.145837e-03 1.261355e-03 1.369037e-03 1.467616e-03 1.556056e-03 1.633571e-03 1.699630e-03 1.753957e-03 1.796515e-03 1.827490e-03 1.847262e-03 1.856379e-03 1.855521e-03 1.845472e-03 1.827086e-03 1.801261e-03 1.768911e-03 1.730944e-03 1.688242e-03 1.641650e-03 1.591959e-03 1.539903e-03 1.486151e-03 1.431303e-03 1.375893e-03 1.320390e-03 1.265196e-03 1.210657e-03
-4.863060e-04 -5.029288e-04 -5.190791e-04 -5.345327e-04 -5.490311e-04 -5.622789e-04 -5.739425e-04 -5.836482e-04 -5.909823e-04 -5.954920e-04 -5.966882e-04 -5.940498e-04 -5.870308e-04 -5.750698e-04 -5.576019e-04 -5.340740e-04 -5.039627e-04 -4.667948e-04 -4.221694e-04 -3.697817e-04 -3.094469e-04 -2.411223e-04 -1.649278e-04 -8.116123e-05 9.691232e-06 1.069520e-04 2.097568e-04 3.170678e-04 4.276950e-04 5.403257e-04 6.535598e-04 7.659503e-04 8.760464e-04 9.824367e-04 1.083790e-03 1.178894e-03 1.266686e-03 1.346275e-03 1.416962e-03 1.478246e-03 1.529825e-03 1.571590e-03 1.603611e-03 1.626120e-03 1.639492e-03 1.644217e-03 1.640882e-03 1.630142e-03 1.612701e-03 1.589285e-03 1.560632e-03 1.527468e-03 1.490497e-03 1.450391e-03 1.407779e-03 1.363245e-03 1.317321e-03 1.270488e-03 1.223172e-03 1.175751e-03 1.128552e-03
-4.664648e-04 -4.810429e-04 -4.950449e-04 -5.082606e-04 -5.204513e-04 -5.313484e-04 -5.406519e-04 -5.480310e-04 -5.531241e-04 -5.555407e-04 -5.548645e-04 -5.506581e-04 -5.424698e-04 -5.298413e-04 -5.123187e-04 -4.894650e-04 -4.608743e-04 -4.261883e-04 -3.851130e-04 -3.374369e-04 -2.830485e-04 -2.219526e-04 -1.542844e-04 -8.032029e-05 -4.845521e-07 8.464962e-05 1.743645e-04 2.678082e-04 3.640119e-04 4.619112e-04 5.603735e-04 6.582284e-04 7.542993e-04 8.474372e-04 9.365511e-04 1.020638e-03 1.098806e-03 1.170295e-03 1.234494e-03 1.290941e-03 1.339335e-03 1.379527e-03 1.411512e-03 1.435422e-03 1.451504e-03 1.460111e-03 1.461677e-03 1.456701e-03 1.445733e-03 1.429349e-03 1.408144e-03 1.382712e-03 1.353637e-03 1.321485e-03 1.286792e-03 1.250062e-03 1.211762e-03 1.172319e-03 1.132118e-03 1.091504e-03 1.050782e-03
-4.461373e-04 -4.588188e-04 -4.708470e-04 -4.820272e-04 -4.921409e-04 -5.009457e-04 -5.081743e-04 -5.135354e-04 -5.167146e-04 -5.173766e-04 -5.151687e-04 -5.097249e-04 -5.006720e-04 -4.876372e-04 -4.702566e-04 -4.481854e-04 -4.211103e-04 -3.887612e-04 -3.509251e-04 -3.074594e-04 -2.583050e-04 -2.034979e-04 -1.431796e-04 -7.760419e-05 -7.142376e-06 6.771816e-05 1.463771e-04 2.281299e-04 3.121813e-04 3.976616e-04 4.836479e-04 5.691865e-04 6.533179e-04 7.351015e-04 8.136397e-04 8.881005e-04 9.577368e-04 1.021902e-03 1.080064e-03 1.131808e-03 1.176845e-03 1.215009e-03 1.246249e-03 1.270627e-03 1.288301e-03 1.299520e-03 1.304603e-03 1.303930e-03 1.297925e-03 1.287048e-03 1.271773e-03 1.252585e-03 1.229968e-03 1.204393e-03 1.176316e-03 1.146170e-03 1.114358e-03 1.081257e-03 1.047212e-03 1.012533e-03 9.774995e-04
-4.256158e-04 -4.365549e-04 -4.467863e-04 -4.561312e-04 -4.643918e-04 -4.713504e-04 -4.767706e-04 -4.803971e-04 -4.819579e-04 -4.811665e-04 -4.777248e-04 -4.713274e-04 -4.616672e-04 -4.484413e-04 -4.313585e-04 -4.101481e-04 -3.845689e-04 -3.544191e-04 -3.195470e-04 -2.798606e-04 -2.353377e-04 -1.860344e-04 -1.320921e-04 -7.374255e-05 -1.131035e-05 5.478781e-05 1.240468e-04 1.958800e-04 2.696299e-04 3.445811e-04 4.199763e-04 4.950336e-04 5.689657e-04 6.409987e-04 7.103912e-04 7.764513e-04 8.385518e-04 8.961438e-04 9.487658e-04 9.960508e-04 1.037729e-03 1.073630e-03 1.103677e-03 1.127883e-03 1.146346e-03 1.159236e-03 1.166785e-03 1.169282e-03 1.167055e-03 1.160463e-03 1.149890e-03 1.135727e-03 1.118374e-03 1.098222e-03 1.075655e-03 1.051044e-03 1.024736e-03 9.970602e-04 9.683208e-04 9.387965e-04 9.087406e-04
-4.051443e-04 -4.144958e-04 -4.231047e-04 -4.308084e-04 -4.374284e-04 -4.427712e-04 -4.466282e-04 -4.487771e-04 -4.489836e-04 -4.470035e-04 -4.425858e-04 -4.354765e-04 -4.254232e-04 -4.121806e-04 -3.955165e-04 -3.752189e-04 -3.511034e-04 -3.230209e-04 -2.908656e-04 -2.545827e-04 -2.141759e-04 -1.697129e-04 -1.213313e-04 -6.924132e-05 -1.372723e-05 4.485345e-05 1.060734e-04 1.694415e-04 2.344106e-04 3.003885e-04 3.667497e-04 4.328494e-04 4.980381e-04 5.616760e-04 6.231477e-04 6.818760e-04 7.373339e-04 7.890546e-04 8.366401e-04 8.797669e-04 9.181889e-04 9.517387e-04 9.803258e-04 1.003934e-03 1.022614e-03 1.036481e-03 1.045704e-03 1.050497e-03 1.051114e-03 1.047838e-03 1.040974e-03 1.030841e-03 1.017764e-03 1.002070e-03 9.840810e-04 9.641104e-04 9.424583e-04 9.194093e-04 8.952304e-04 8.701690e-04 8.444527e-04
-3.849220e-04 -3.928378e-04 -3.999926e-04 -4.062390e-04 -4.114176e-04 -4.153567e-04 -4.178735e-04 -4.187752e-04 -4.178606e-04 -4.149224e-04 -4.097497e-04 -4.021318e-04 -3.918619e-04 -3.787419e-04 -3.625871e-04 -3.432324e-04 -3.205379e-04 -2.943949e-04 -2.647323e-04 -2.315224e-04 -1.947862e-04 -1.545977e-04 -1.110880e-04 -6.444692e-05 -1.492373e-05 3.717385e-05 9.148274e-05 1.475893e-04 2.050359e-04 2.633293e-04 3.219501e-04 3.803635e-04 4.380306e-04 4.944200e-04 5.490187e-04 6.013437e-04 6.509506e-04 6.974426e-04 7.404768e-04 7.797693e-04 8.150981e-04 8.463044e-04 8.732920e-04 8.960249e-04 9.145243e-04 9.288632e-04 9.391617e-04 9.455800e-04 9.483126e-04 9.475813e-04 9.436288e-04 9.367129e-04 9.271000e-04 9.150607e-04 9.008646e-04 8.847764e-04 8.670529e-04 8.479398e-04 8.276701e-04 8.064621e-04 7.845184e-04
