5.772246e-04 5.908119e-04 6.035553e-04 6.152758e-04 6.257801e-04 6.348622e-04 6.423037e-04 6.478764e-04 6.513439e-04 6.524648e-04 6.509960e-04 6.466973e-04 6.393356e-04 6.286905e-04 6.145602e-04 5.967679e-04 5.751678e-04 5.496522e-04 5.201575e-04 4.866701e-04 4.492319e-04 4.079442e-04 3.629705e-04 3.145382e-04 2.629378e-04 2.085209e-04 1.516960e-04 9.292201e-05 3.270065e-05 -2.843323e-05 -8.992241e-05 -1.511990e-04 -2.116965e-04 -2.708620e-04 -3.281679e-04 -3.831225e-04 -4.352795e-04 -4.842460e-04 -5.296882e-04 -5.713359e-04 -6.089842e-04 -6.424939e-04 -6.717898e-04 -6.968578e-04 -7.177399e-04 -7.345291e-04 -7.473630e-04 -7.564170e-04 -7.618976e-04 -7.640356e-04 -7.630792e-04 -7.592882e-04 -7.529282e-04 -7.442658e-04 -7.335641e-04 -7.210790e-04 -7.070566e-04 -6.917306e-04 -6.753206e-04 -6.580310e-04 -6.400502e-04
6.209543e-04 6.370907e-04 6.524041e-04 6.666917e-04 6.797327e-04 6.912890e-04 7.011064e-04 7.089159e-04 7.144368e-04 7.173794e-04 7.174490e-04 7.143511e-04 7.077968e-04 6.975096e-04 6.832325e-04 6.647358e-04 6.418257e-04 6.143525e-04 5.822190e-04 5.453888e-04 5.038927e-04 4.578350e-04 4.073975e-04 3.528417e-04 2.945087e-04 2.328169e-04 1.682563e-04 1.013813e-04 3.280010e-05 -3.683745e-05 -1.068538e-04 -1.765587e-04 -2.452655e-04 -3.123061e-04 -3.770463e-04 -4.388994e-04 -4.973382e-04 -5.519040e-04 -6.022147e-04 -6.479683e-04 -6.889455e-04 -7.250087e-04 -7.560992e-04 -7.822321e-04 -8.034902e-04 -8.200162e-04 -8.320040e-04 -8.396901e-04 -8.433449e-04 -8.432634e-04 -8.397577e-04 -8.331493e-04 -8.237621e-04 -8.119170e-04 -7.979270e-04 -7.820930e-04 -7.647007e-04 -7.460184e-04 -7.262954e-04 -7.057610e-04 -6.846241e-04
6.680498e-04 6.871425e-04 7.054590e-04 7.227710e-04 7.388269e-04 7.533529e-04 7.660533e-04 7.766122e-04 7.846962e-04 7.899580e-04 7.920404e-04 7.905824e-04 7.852260e-04 7.756239e-04 7.614484e-04 7.424021e-04 7.182276e-04 6.887191e-04 6.537335e-04 6.132005e-04 5.671327e-04 5.156337e-04 4.589039e-04 3.972442e-04 3.310563e-04 2.608402e-04 1.871874e-04 1.107713e-04 3.233417e-05 -4.732914e-05 -1.273894e-04 -2.070026e-04 -2.853311e-04 -3.615633e-04 -4.349334e-04 -5.047388e-04 -5.703550e-04 -6.312469e-04 -6.869779e-04 -7.372140e-04 -7.817256e-04 -8.203851e-04 -8.531621e-04 -8.801161e-04 -9.013872e-04 -9.171854e-04 -9.277797e-04 -9.334856e-04 -9.346545e-04 -9.316624e-04 -9.248997e-04 -9.147625e-04 -9.016446e-04 -8.859306e-04 -8.679910e-04 -8.481773e-04 -8.268196e-04 -8.042238e-04 -7.806706e-04 -7.564150e-04 -7.316864e-04
7.186778e-04 7.411920e-04 7.630113e-04 7.838799e-04 8.035130e-04 8.215965e-04 8.377877e-04 8.517166e-04 8.629881e-04 8.711860e-04 8.758777e-04 8.766208e-04 8.729712e-04 8.644924e-04 8.507672e-04 8.314098e-04 8.060794e-04 7.744950e-04 7.364498e-04 6.918254e-04 6.406053e-04 5.828859e-04 5.188858e-04 4.489507e-04 3.735553e-04 2.933000e-04 2.089030e-04 1.211880e-04 3.106696e-05 -6.048116e-05 -1.524343e-04 -2.437535e-04 -3.334104e-04 -4.204136e-04 -5.038340e-04 -5.828269e-04 -6.566512e-04 -7.246834e-04 -7.864270e-04 -8.415179e-04 -8.897239e-04 -9.309406e-04 -9.651835e-04 -9.925770e-04 -1.013341e-03 -1.027778e-03 -1.036254e-03 -1.039188e-03 -1.037034e-03 -1.030268e-03 -1.019377e-03 -1.004847e-03 -9.871549e-04 -9.667583e-04 -9.440936e-04 -9.195693e-04 -8.935634e-04 -8.664220e-04 -8.384584e-04 -8.099530e-04 -7.811542e-04
7.729788e-04 7.994443e-04 8.253406e-04 8.503835e-04 8.742525e-04 8.965894e-04 9.169987e-04 9.350482e-04 9.502709e-04 9.621690e-04 9.702189e-04 9.738786e-04 9.725971e-04 9.658261e-04 9.530332e-04 9.337183e-04 9.074309e-04 8.737885e-04 8.324970e-04 7.833690e-04 7.263429e-04 6.614983e-04 5.890692e-04 5.094523e-04 4.232098e-04 3.310666e-04 2.339004e-04 1.327258e-04 2.867161e-05 -7.704712e-05 -1.831613e-04 -2.883829e-04 -3.914410e-04 -4.911173e-04 -5.862789e-04 -6.759072e-04 -7.591215e-04 -8.351965e-04 -9.035728e-04 -9.638614e-04 -1.015841e-03 -1.059451e-03 -1.094777e-03 -1.122038e-03 -1.141566e-03 -1.153785e-03 -1.159190e-03 -1.158334e-03 -1.151799e-03 -1.140186e-03 -1.124099e-03 -1.104132e-03 -1.080857e-03 -1.054818e-03 -1.026525e-03 -9.964479e-04 -9.650166e-04 -9.326184e-04 -8.995988e-04 -8.662621e-04 -8.328735e-04
8.310546e-04 8.620711e-04 8.927012e-04 9.226323e-04 9.515065e-04 9.789182e-04 1.004414e-03 1.027490e-03 1.047596e-03 1.064140e-03 1.076487e-03 1.083974e-03 1.085919e-03 1.081631e-03 1.070431e-03 1.051670e-03 1.024753e-03 9.891607e-04 9.444786e-04 8.904212e-04 8.268583e-04 7.538373e-04 6.716022e-04 5.806060e-04 4.815165e-04 3.752137e-04 2.627777e-04 1.454679e-04 2.469278e-05 -9.802726e-05 -2.211038e-04 -3.429275e-04 -4.619168e-04 -5.765653e-04 -6.854849e-04 -7.874433e-04 -8.813940e-04 -9.664967e-04 -1.042129e-03 -1.107888e-03 -1.163588e-03 -1.209239e-03 -1.245037e-03 -1.271334e-03 -1.288615e-03 -1.297467e-03 -1.298559e-03 -1.292608e-03 -1.280361e-03 -1.262572e-03 -1.239987e-03 -1.213325e-03 -1.183271e-03 -1.150466e-03 -1.115498e-03 -1.078906e-03 -1.041172e-03 -1.002724e-03 -9.639379e-04 -9.251381e-04 -8.866024e-04
8.929515e-04 9.291934e-04 9.653042e-04 1.000944e-03 1.035718e-03 1.069171e-03 1.100785e-03 1.129978e-03 1.156106e-03 1.178462e-03 1.196283e-03 1.208757e-03 1.215037e-03 1.214257e-03 1.205548e-03 1.188069e-03 1.161032e-03 1.123734e-03 1.075593e-03 1.016185e-03 9.452766e-04 8.628593e-04 7.691759e-04 6.647406e-04 5.503485e-04 4.270738e-04 2.962558e-04 1.594708e-04 1.849179e-05 -1.247620e-04 -2.682850e-04 -4.100502e-04 -5.480748e-04 -6.804840e-04 -8.055690e-04 -9.218356e-04 -1.028041e-03 -1.123219e-03 -1.206690e-03 -1.278062e-03 -1.337216e-03 -1.384283e-03 -1.419618e-03 -1.443763e-03 -1.457412e-03 -1.461373e-03 -1.456534e-03 -1.443827e-03 -1.424202e-03 -1.398602e-03 -1.367938e-03 -1.333078e-03 -1.294835e-03 -1.253953e-03 -1.211111e-03 -1.166915e-03 -1.121898e-03 -1.076527e-03 -1.031202e-03 -9.862630e-04 -9.419919e-04
9.586391e-04 1.000859e-03 1.043293e-03 1.085581e-03 1.127289e-03 1.167914e-03 1.206870e-03 1.243490e-03 1.277022e-03 1.306629e-03 1.331393e-03 1.350325e-03 1.362376e-03 1.366455e-03 1.361455e-03 1.346281e-03 1.319890e-03 1.281330e-03 1.229789e-03 1.164644e-03 1.085509e-03 9.922826e-04 8.851866e-04 7.647986e-04 6.320666e-04 4.883105e-04 3.352039e-04 1.747378e-04 9.165855e-06 -1.590661e-04 -3.274023e-04 -4.932667e-04 -6.541538e-04 -8.077157e-04 -9.518390e-04 -1.084709e-03 -1.204854e-03 -1.311176e-03 -1.402958e-03 -1.479855e-03 -1.541873e-03 -1.589330e-03 -1.622816e-03 -1.643138e-03 -1.651277e-03 -1.648331e-03 -1.635473e-03 -1.613906e-03 -1.584831e-03 -1.549415e-03 -1.508768e-03 -1.463927e-03 -1.415844e-03 -1.365380e-03 -1.313302e-03 -1.260282e-03 -1.206902e-03 -1.153660e-03 -1.100971e-03 -1.049180e-03 -9.985651e-04
1.027985e-03 1.077013e-03 1.126715e-03 1.176713e-03 1.226544e-03 1.275657e-03 1.323399e-03 1.369011e-03 1.411622e-03 1.450248e-03 1.483791e-03 1.511047e-03 1.530719e-03 1.541437e-03 1.541786e-03 1.530343e-03 1.505725e-03 1.466643e-03 1.411965e-03 1.340783e-03 1.252485e-03 1.146819e-03 1.023954e-03 8.845274e-04 7.296700e-04 5.610137e-04 3.806688e-04 1.911751e-04 -4.572735e-06 -2.034247e-04 -4.020904e-04 -5.972655e-04 -7.857577e-04 -9.646070e-04 -1.131189e-03 -1.283298e-03 -1.419205e-03 -1.537683e-03 -1.638018e-03 -1.719978e-03 -1.783780e-03 -1.830027e-03 -1.859649e-03 -1.873828e-03 -1.873927e-03 -1.861429e-03 -1.837870e-03 -1.804795e-03 -1.763708e-03 -1.716042e-03 -1.663137e-03 -1.606217e-03 -1.546387e-03 -1.484625e-03 -1.421783e-03 -1.358596e-03 -1.295682e-03 -1.233557e-03 -1.172640e-03 -1.113267e-03 -1.055696e-03
1.100724e-03 1.157466e-03 1.215480e-03 1.274381e-03 1.333689e-03 1.392810e-03 1.451028e-03 1.507492e-03 1.561205e-03 1.611016e-03 1.655620e-03 1.693560e-03 1.723237e-03 1.742932e-03 1.750838e-03 1.745104e-03 1.723895e-03 1.685461e-03 1.628225e-03 1.550874e-03 1.452457e-03 1.332485e-03 1.191020e-03 1.028741e-03 8.470004e-04 6.478269e-04 4.339075e-04 2.085185e-04 -2.457938e-05 -2.612819e-04 -4.973060e-04 -7.283695e-04 -9.503699e-04 -1.159551e-03 -1.352643e-03 -1.526970e-03 -1.680522e-03 -1.811975e-03 -1.920686e-03 -2.006649e-03 -2.070421e-03 -2.113038e-03 -2.135917e-03 -2.140756e-03 -2.129436e-03 -2.103939e-03 -2.066264e-03 -2.018372e-03 -1.962132e-03 -1.899290e-03 -1.831437e-03 -1.760004e-03 -1.686248e-03 -1.611263e-03 -1.535976e-03 -1.461168e-03 -1.387477e-03 -1.315417e-03 -1.245391e-03 -1.177707e-03 -1.112585e-03
1.176421e-03 1.241849e-03 1.309312e-03 1.378440e-03 1.448748e-03 1.519616e-03 1.590277e-03 1.659790e-03 1.727029e-03 1.790666e-03 1.849162e-03 1.900763e-03 1.943508e-03 1.975245e-03 1.993671e-03 1.996377e-03 1.980924e-03 1.944936e-03 1.886213e-03 1.802857e-03 1.693418e-03 1.557031e-03 1.393555e-03 1.203685e-03 9.890242e-04 7.521171e-04 4.964206e-04 2.262126e-04 -5.355807e-05 -3.374750e-04 -6.198948e-04 -8.952071e-04 -1.158091e-03 -1.403750e-03 -1.628103e-03 -1.827922e-03 -2.000911e-03 -2.145723e-03 -2.261919e-03 -2.349890e-03 -2.410738e-03 -2.446142e-03 -2.458212e-03 -2.449355e-03 -2.422140e-03 -2.379188e-03 -2.323080e-03 -2.256279e-03 -2.181083e-03 -2.099583e-03 -2.013648e-03 -1.924915e-03 -1.834792e-03 -1.744466e-03 -1.654922e-03 -1.566957e-03 -1.481205e-03 -1.398150e-03 -1.318151e-03 -1.241462e-03 -1.168242e-03
1.254429e-03 1.329563e-03 1.407695e-03 1.488492e-03 1.571491e-03 1.656073e-03 1.741436e-03 1.826568e-03 1.910221e-03 1.990884e-03 2.066763e-03 2.135767e-03 2.195504e-03 2.243296e-03 2.276210e-03 2.291114e-03 2.284767e-03 2.253936e-03 2.195545e-03 2.106854e-03 1.985665e-03 1.830526e-03 1.640940e-03 1.417543e-03 1.162228e-03 8.782076e-04 5.699805e-04 2.432093e-04 -9.549959e-05 -4.388958e-04 -7.794434e-04 -1.109704e-03 -1.422712e-03 -1.712307e-03 -1.973395e-03 -2.202123e-03 -2.395960e-03 -2.553682e-03 -2.675286e-03 -2.761839e-03 -2.815290e-03 -2.838262e-03 -2.833847e-03 -2.805411e-03 -2.756424e-03 -2.690321e-03 -2.610386e-03 -2.519679e-03 -2.420978e-03 -2.316751e-03 -2.209145e-03 -2.099991e-03 -1.990820e-03 -1.882883e-03 -1.777183e-03 -1.674496e-03 -1.575407e-03 -1.480336e-03 -1.389561e-03 -1.303248e-03 -1.221467e-03
1.333843e-03 1.419723e-03 1.509796e-03 1.603803e-03 1.701338e-03 1.801819e-03 1.904446e-03 2.008168e-03 2.111638e-03 2.213171e-03 2.310712e-03 2.401797e-03 2.483537e-03 2.552618e-03 2.605321e-03 2.637585e-03 2.645101e-03 2.623462e-03 2.568362e-03 2.475841e-03 2.342573e-03 2.166186e-03 1.945571e-03 1.681168e-03 1.375183e-03 1.031697e-03 6.566427e-04 2.576304e-04 -1.563771e-04 -5.755191e-04 -9.895809e-04 -1.388574e-03 -1.763289e-03 -2.105780e-03 -2.409711e-03 -2.670578e-03 -2.885760e-03 -3.054451e-03 -3.177469e-03 -3.257001e-03 -3.296293e-03 -3.299345e-03 -3.270611e-03 -3.214741e-03 -3.136363e-03 -3.039913e-03 -2.929515e-03 -2.808899e-03 -2.681361e-03 -2.549744e-03 -2.416453e-03 -2.283472e-03 -2.152404e-03 -2.024508e-03 -1.900742e-03 -1.781807e-03 -1.668185e-03 -1.560178e-03 -1.457942e-03 -1.361514e-03 -1.270839e-03
1.413447e-03 1.511094e-03 1.614393e-03 1.723206e-03 1.837239e-03 1.955998e-03 2.078744e-03 2.204437e-03 2.331680e-03 2.458653e-03 2.583050e-03 2.702020e-03 2.812122e-03 2.909291e-03 2.988848e-03 3.045541e-03 3.073651e-03 3.067169e-03 3.020052e-03 2.926557e-03 2.781664e-03 2.581541e-03 2.324039e-03 2.009147e-03 1.639365e-03 1.219911e-03 7.587200e-04 2.661984e-04 -2.452700e-04 -7.620303e-04 -1.270005e-03 -1.755591e-03 -2.206498e-03 -2.612444e-03 -2.965634e-03 -3.260996e-03 -3.496171e-03 -3.671308e-03 -3.788701e-03 -3.852342e-03 -3.867441e-03 -3.839969e-03 -3.776245e-03 -3.682597e-03 -3.565097e-03 -3.429377e-03 -3.280507e-03 -3.122935e-03 -2.960464e-03 -2.796273e-03 -2.632955e-03 -2.472569e-03 -2.316701e-03 -2.166531e-03 -2.022891e-03 -1.886326e-03 -1.757145e-03 -1.635472e-03 -1.521281e-03 -1.414437e-03 -1.314717e-03
1.491665e-03 1.602020e-03 1.719782e-03 1.844993e-03 1.977538e-03 2.117091e-03 2.263055e-03 2.414488e-03 2.570026e-03 2.727785e-03 2.885266e-03 3.039253e-03 3.185722e-03 3.319763e-03 3.435543e-03 3.526317e-03 3.584519e-03 3.601960e-03 3.570143e-03 3.480722e-03 3.326094e-03 3.100111e-03 2.798854e-03 2.421384e-03 1.970384e-03 1.452555e-03 8.786787e-04 2.632651e-04 -3.762150e-04 -1.020460e-03 -1.649702e-03 -2.245127e-03 -2.790180e-03 -3.271575e-03 -3.679923e-03 -4.009940e-03 -4.260264e-03 -4.432976e-03 -4.532922e-03 -4.566960e-03 -4.543223e-03 -4.470449e-03 -4.357441e-03 -4.212644e-03 -4.043861e-03 -3.858070e-03 -3.661335e-03 -3.458789e-03 -3.254666e-03 -3.052366e-03 -2.854542e-03 -2.663191e-03 -2.479754e-03 -2.305206e-03 -2.140139e-03 -1.984844e-03 -1.839370e-03 -1.703587e-03 -1.577226e-03 -1.459925e-03 -1.351253e-03
1.566512e-03 1.690363e-03 1.823688e-03 1.966787e-03 2.119816e-03 2.282717e-03 2.455152e-03 2.636405e-03 2.825277e-03 3.019953e-03 3.217858e-03 3.415499e-03 3.608302e-03 3.790461e-03 3.954814e-03 4.092790e-03 4.194443e-03 4.248641e-03 4.243432e-03 4.166648e-03 4.006739e-03 3.753846e-03 3.401027e-03 2.945523e-03 2.389876e-03 1.742699e-03 1.018891e-03 2.391365e-04 -5.713199e-04 -1.384543e-03 -2.172170e-03 -2.907748e-03 -3.568785e-03 -4.138245e-03 -4.605317e-03 -4.965447e-03 -5.219743e-03 -5.373951e-03 -5.437231e-03 -5.420907e-03 -5.337353e-03 -5.199081e-03 -5.018068e-03 -4.805298e-03 -4.570498e-03 -4.322021e-03 -4.066841e-03 -3.810621e-03 -3.557827e-03 -3.311869e-03 -3.075244e-03 -2.849690e-03 -2.636315e-03 -2.435728e-03 -2.248142e-03 -2.073472e-03 -1.911407e-03 -1.761477e-03 -1.623106e-03 -1.495649e-03 -1.378425e-03
1.635557e-03 1.773438e-03 1.923177e-03 2.085427e-03 2.260721e-03 2.449407e-03 2.651560e-03 2.866871e-03 3.094504e-03 3.332926e-03 3.579702e-03 3.831254e-03 4.082604e-03 4.327098e-03 4.556150e-03 4.759044e-03 4.922850e-03 5.032523e-03 5.071284e-03 5.021355e-03 4.865120e-03 4.586723e-03 4.174028e-03 3.620762e-03 2.928536e-03 2.108344e-03 1.181137e-03 1.771527e-04 -8.661135e-04 -1.907106e-03 -2.904118e-03 -3.819256e-03 -4.621781e-03 -5.290292e-03 -5.813531e-03 -6.189855e-03 -6.425715e-03 -6.533582e-03 -6.529737e-03 -6.432286e-03 -6.259556e-03 -6.028951e-03 -5.756235e-03 -5.455151e-03 -5.137300e-03 -4.812190e-03 -4.487387e-03 -4.168726e-03 -3.860543e-03 -3.565913e-03 -3.286873e-03 -3.024624e-03 -2.779711e-03 -2.552176e-03 -2.341692e-03 -2.147660e-03 -1.969304e-03 -1.805732e-03 -1.655989e-03 -1.519099e-03 -1.394090e-03
1.695908e-03 1.847976e-03 2.014588e-03 2.196849e-03 2.395805e-03 2.612372e-03 2.847238e-03 3.100739e-03 3.372688e-03 3.662155e-03 3.967192e-03 4.284498e-03 4.609017e-03 4.933496e-03 5.248005e-03 5.539494e-03 5.791447e-03 5.983764e-03 6.093014e-03 6.093241e-03 5.957480e-03 5.660108e-03 5.179969e-03 4.504049e-03 3.631189e-03 2.575082e-03 1.365716e-03 4.854104e-05 -1.318951e-03 -2.672933e-03 -3.950285e-03 -5.095609e-03 -6.066823e-03 -6.838306e-03 -7.401291e-03 -7.761844e-03 -7.937297e-03 -7.952115e-03 -7.834056e-03 -7.611133e-03 -7.309533e-03 -6.952453e-03 -6.559598e-03 -6.147162e-03 -5.728050e-03 -5.312254e-03 -4.907251e-03 -4.518417e-03 -4.149400e-03 -3.802458e-03 -3.478762e-03 -3.178646e-03 -2.901819e-03 -2.647545e-03 -2.414780e-03 -2.202285e-03 -2.008714e-03 -1.832674e-03 -1.672777e-03 -1.527672e-03 -1.396066e-03
1.744217e-03 1.910121e-03 2.093497e-03 2.296019e-03 2.519390e-03 2.765283e-03 3.035245e-03 3.330563e-03 3.652073e-03 3.999904e-03 4.373124e-03 4.769298e-03 5.183917e-03 5.609706e-03 6.035832e-03 6.447047e-03 6.822868e-03 7.136961e-03 7.356988e-03 7.445226e-03 7.360360e-03 7.060774e-03 6.509487e-03 5.680487e-03 4.565675e-03 3.181010e-03 1.570059e-03 -1.967299e-04 -2.027937e-03 -3.821778e-03 -5.479428e-03 -6.918040e-03 -8.080424e-03 -8.939355e-03 -9.496173e-03 -9.774953e-03 -9.814435e-03 -9.659983e-03 -9.357137e-03 -8.947411e-03 -8.466214e-03 -7.942327e-03 -7.398324e-03 -6.851389e-03 -6.314248e-03 -5.796019e-03 -5.302947e-03 -4.839008e-03 -4.406415e-03 -4.006032e-03 -3.637708e-03 -3.300562e-03 -2.993204e-03 -2.713916e-03 -2.460790e-03 -2.231837e-03 -2.025061e-03 -1.838516e-03 -1.670343e-03 -1.518793e-03 -1.382242e-03
1.776743e-03 1.955465e-03 2.154738e-03 2.376909e-03 2.624491e-03 2.900117e-03 3.206467e-03 3.546144e-03 3.921480e-03 4.334261e-03 4.785321e-03 5.273989e-03 5.797331e-03 6.349166e-03 6.918830e-03 7.489699e-03 8.037570e-03 8.529082e-03 8.920560e-03 9.157840e-03 9.177852e-03 8.912823e-03 8.297775e-03 7.281406e-03 5.839249e-03 3.986571e-03 1.787140e-03 -6.462453e-04 -3.162073e-03 -5.590747e-03 -7.771162e-03 -9.576220e-03 -1.093025e-02 -1.181406e-02 -1.225777e-02 -1.232538e-02 -1.209682e-02 -1.165270e-02 -1.106421e-02 -1.038875e-02 -9.669598e-03 -8.937868e-03 -8.215215e-03 -7.516326e-03 -6.850876e-03 -6.224927e-03 -5.641897e-03 -5.103237e-03 -4.608936e-03 -4.157903e-03 -3.748283e-03 -3.377707e-03 -3.043496e-03 -2.742822e-03 -2.472826e-03 -2.230713e-03 -2.013805e-03 -1.819587e-03 -1.645726e-03 -1.490082e-03 -1.350708e-03
1.789455e-03 1.979166e-03 2.192506e-03 2.432584e-03 2.702856e-03 3.007116e-03 3.349458e-03 3.734193e-03 4.165696e-03 4.648146e-03 5.185117e-03 5.778959e-03 6.429881e-03 7.134665e-03 7.884898e-03 8.664660e-03 9.447664e-03 1.019401e-02 1.084697e-02 1.133065e-02 1.154997e-02 1.139487e-02 1.075073e-02 9.516634e-03 7.630316e-03 5.095857e-03 2.005589e-03 -1.453935e-03 -5.019793e-03 -8.394632e-03 -1.130283e-02 -1.354368e-02 -1.502415e-02 -1.576189e-02 -1.586078e-02 -1.547126e-02 -1.475085e-02 -1.383612e-02 -1.282993e-02 -1.180126e-02 -1.079198e-02 -9.825366e-03 -8.913421e-03 -8.061814e-03 -7.272779e-03 -6.546586e-03 -5.882227e-03 -5.277736e-03 -4.730403e-03 -4.236944e-03 -3.793685e-03 -3.396723e-03 -3.042083e-03 -2.725839e-03 -2.444211e-03 -2.193630e-03 -1.970776e-03 -1.772607e-03 -1.596357e-03 -1.439534e-03 -1.299907e-03
1.778211e-03 1.976141e-03 2.200567e-03 2.455415e-03 2.745176e-03 3.074956e-03 3.450511e-03 3.878237e-03 4.365108e-03 4.918510e-03 5.545911e-03 6.254282e-03 7.049140e-03 7.933054e-03 8.903378e-03 9.948992e-03 1.104579e-02 1.215082e-02 1.319538e-02 1.407797e-02 1.465924e-02 1.476279e-02 1.418699e-02 1.273317e-02 1.025246e-02 6.705722e-03 2.219337e-03 -2.889300e-03 -8.140711e-03 -1.298237e-02 -1.691495e-02 -1.961076e-02 -2.097879e-02 -2.115405e-02 -2.042264e-02 -1.912023e-02 -1.754544e-02 -1.591302e-02 -1.434795e-02 -1.290511e-02 -1.159653e-02 -1.041421e-02 -9.344400e-03 -8.374293e-03 -7.493975e-03 -6.696090e-03 -5.974878e-03 -5.325293e-03 -4.742470e-03 -4.221476e-03 -3.757280e-03 -3.344823e-03 -2.979127e-03 -2.655405e-03 -2.369142e-03 -2.116148e-03 -1.892593e-03 -1.695016e-03 -1.520312e-03 -1.365720e-03 -1.228797e-03
1.739005e-03 1.941355e-03 2.172601e-03 2.437468e-03 2.741502e-03 3.091190e-03 3.494094e-03 3.958968e-03 4.495855e-03 5.116105e-03 5.832265e-03 6.657723e-03 7.605959e-03 8.689124e-03 9.915590e-03 1.128594e-02 1.278675e-02 1.438134e-02 1.599714e-02 1.750977e-02 1.872624e-02 1.937322e-02 1.910134e-02 1.752143e-02 1.428717e-02 9.224170e-03 2.473944e-03 -5.414201e-03 -1.351984e-02 -2.074816e-02 -2.613237e-02 -2.911663e-02 -2.969264e-02 -2.833416e-02 -2.577428e-02 -2.274203e-02 -1.977497e-02 -1.715958e-02 -1.497513e-02 -1.317987e-02 -1.168803e-02 -1.041658e-02 -9.303752e-03 -8.310329e-03 -7.413982e-03 -6.602666e-03 -5.869527e-03 -5.209734e-03 -4.618863e-03 -4.092252e-03 -3.624888e-03 -3.211527e-03 -2.846885e-03 -2.525816e-03 -2.243442e-03 -1.995242e-03 -1.777099e-03 -1.585310e-03 -1.416578e-03 -1.267992e-03 -1.136998e-03
1.668282e-03 1.870214e-03 2.102671e-03 2.371080e-03 2.681945e-03 3.043059e-03 3.463763e-03 3.955234e-03 4.530804e-03 5.206277e-03 6.000211e-03 6.934050e-03 8.031959e-03 9.320040e-03 1.082443e-02 1.256745e-02 1.456051e-02 1.679192e-02 1.920719e-02 2.167957e-02 2.397051e-02 2.568557e-02 2.624388e-02 2.489841e-02 2.085967e-02 1.356227e-02 3.037734e-03 -9.772064e-03 -2.300983e-02 -3.435326e-02 -4.178806e-02 -4.433041e-02 -4.232955e-02 -3.720908e-02 -3.080507e-02 -2.466795e-02 -1.967063e-02 -1.601731e-02 -1.349628e-02 -1.175613e-02 -1.048075e-02 -9.453080e-03 -8.550968e-03 -7.718390e-03 -6.936720e-03 -6.204452e-03 -5.525531e-03 -4.903797e-03 -4.340975e-03 -3.836422e-03 -3.387593e-03 -2.990673e-03 -2.641152e-03 -2.334273e-03 -2.065331e-03 -1.829866e-03 -1.623772e-03 -1.443340e-03 -1.285266e-03 -1.146641e-03 -1.024918e-03
1.563301e-03 1.759028e-03 1.985825e-03 2.249615e-03 2.557623e-03 2.918687e-03 3.343649e-03 3.845838e-03 4.441664e-03 5.151331e-03 5.999666e-03 7.017036e-03 8.240238e-03 9.713146e-03 1.148659e-02 1.361656e-02 1.615881e-02 1.915690e-02 2.261807e-02 2.646933e-02 3.048404e-02 3.417347e-02 3.665712e-02 3.657507e-02 3.218590e-02 2.184909e-02 4.967570e-03 -1.696119e-02 -4.001756e-02 -5.892626e-02 -6.917319e-02 -6.894683e-02 -5.982284e-02 -4.587351e-02 -3.168843e-02 -2.046239e-02 -1.324501e-02 -9.453497e-03 -7.869435e-03 -7.379271e-03 -7.254924e-03 -7.130879e-03 -6.878718e-03 -6.491033e-03 -6.006700e-03 -5.472501e-03 -4.927516e-03 -4.399200e-03 -3.904387e-03 -3.451798e-03 -3.044574e-03 -2.682314e-03 -2.362555e-03 -2.081776e-03 -1.836040e-03 -1.621381e-03 -1.434033e-03 -1.270532e-03 -1.127771e-03 -1.003003e-03 -8.938222e-04
1.422523e-03 1.605521e-03 1.818762e-03 2.068350e-03 2.361840e-03 2.708633e-03 3.120488e-03 3.612187e-03 4.202410e-03 4.914863e-03 5.779755e-03 6.835679e-03 8.131978e-03 9.731607e-03 1.171429e-02 1.417944e-02 1.724715e-02 2.105388e-02 2.573496e-02 3.137896e-02 3.792664e-02 4.497394e-02 5.144071e-02 5.513694e-02 5.248759e-02 3.907789e-02 1.182685e-02 -2.753216e-02 -7.042124e-02 -1.040478e-01 -1.177068e-01 -1.080530e-01 -8.047170e-02 -4.637583e-02 -1.732092e-02 5.513518e-04 7.597771e-03 7.666691e-03 4.720857e-03 1.304109e-03 -1.447261e-03 -3.262520e-03 -4.256491e-03 -4.652243e-03 -4.659885e-03 -4.439789e-03 -4.101829e-03 -3.716029e-03 -3.324314e-03 -2.950080e-03 -2.605059e-03 -2.293934e-03 -2.017320e-03 -1.773614e-03 -1.560130e-03 -1.373764e-03 -1.211370e-03 -1.069963e-03 -9.468140e-04 -8.394892e-04 -7.458472e-04
1.245969e-03 1.409319e-03 1.600503e-03 1.825392e-03 2.091339e-03 2.407619e-03 2.786013e-03 3.241602e-03 3.793841e-03 4.468032e-03 5.297346e-03 6.325639e-03 7.611343e-03 9.232870e-03 1.129602e-02 1.394391e-02 1.736951e-02 2.182957e-02 2.765435e-02 3.523707e-02 4.496096e-02 5.696954e-02 7.059903e-02 8.323764e-02 8.865785e-02 7.616896e-02 3.427087e-02 -3.836081e-02 -1.224794e-01 -1.850737e-01 -2.005869e-01 -1.639102e-01 -9.090333e-02 -1.267278e-02 4.125763e-02 6.118807e-02 5.656419e-02 4.178544e-02 2.652066e-02 1.464535e-02 6.644322e-03 1.739600e-03 -1.033435e-03 -2.455835e-03 -3.069410e-03 -3.221699e-03 -3.125402e-03 -2.906407e-03 -2.637018e-03 -2.357316e-03 -2.088398e-03 -1.840375e-03 -1.617150e-03 -1.419229e-03 -1.245362e-03 -1.093483e-03 -9.612350e-04 -8.462629e-04 -7.463529e-04 -6.595001e-04 -5.839275e-04
1.035493e-03 1.172336e-03 1.332942e-03 1.522470e-03 1.747444e-03 2.016173e-03 2.339334e-03 2.730777e-03 3.208646e-03 3.796971e-03 4.527947e-03 5.445237e-03 6.608848e-03 8.102395e-03 1.004407e-02 1.260336e-02 1.602650e-02 2.067502e-02 2.708175e-02 3.602411e-02 4.859219e-02 6.615089e-02 8.987248e-02 1.190091e-01 1.464473e-01 1.514186e-01 9.858790e-02 -3.311804e-02 -2.003866e-01 -3.123733e-01 -3.155876e-01 -2.120020e-01 -3.757425e-02 1.285315e-01 2.085089e-01 1.985960e-01 1.470649e-01 9.410853e-02 5.482833e-02 2.968817e-02 1.482264e-02 6.453773e-03 1.924062e-03 -4.185399e-04 -1.544041e-03 -2.006095e-03 -2.115983e-03 -2.046966e-03 -1.894476e-03 -1.710252e-03 -1.521581e-03 -1.342127e-03 -1.178033e-03 -1.031372e-03 -9.020769e-04 -7.890349e-04 -6.906837e-04 -6.053398e-04 -5.313666e-04 -4.672549e-04 -4.116554e-04
7.949146e-04 8.989917e-04 1.021172e-03 1.165435e-03 1.336828e-03 1.541817e-03 1.788766e-03 2.088605e-03 2.455788e-03 2.909673e-03 3.476547e-03 4.192661e-03 5.108863e-03 6.297818e-03 7.865545e-03 9.970252e-03 1.285384e-02 1.689567e-02 2.270581e-02 3.128653e-02 4.430388e-02 6.449466e-02 9.605460e-02 1.440143e-01 2.088236e-01 2.671740e-01 2.393599e-01 2.614566e-02 -2.811842e-01 -4.213111e-01 -3.433688e-01 -1.174370e-01 2.334386e-01 5.321446e-01 5.693909e-01 4.224353e-01 2.579811e-01 1.426205e-01 7.486992e-02 3.801640e-02 1.862189e-02 8.568773e-03 3.416516e-03 8.231250e-04 -4.344073e-04 -9.958281e-04 -1.197755e-03 -1.218316e-03 -1.151998e-03 -1.048711e-03 -9.344267e-04 -8.222033e-04 -7.181445e-04 -6.246433e-04 -5.421595e-04 -4.701932e-04 -4.078151e-04 -3.539496e-04 -3.075223e-04 -2.675309e-04 -2.330753e-04
5.299716e-04 5.961645e-04 6.734836e-04 7.643144e-04 8.716745e-04 9.994175e-04 1.152514e-03 1.337450e-03 1.562790e-03 1.840002e-03 2.184684e-03 2.618412e-03 3.171628e-03 3.888247e-03 4.833238e-03 6.105524e-03 7.860701e-03 1.035254e-02 1.401160e-02 1.959904e-02 2.851462e-02 4.341329e-02 6.937012e-02 1.155967e-01 1.951884e-01 3.077225e-01 3.603219e-01 1.040200e-01 -3.024317e-01 -2.371362e-01 6.304175e-02 3.633231e-01 8.507824e-01 1.181559e+00 9.315610e-01 5.343488e-01 2.684697e-01 1.288412e-01 6.113618e-02 2.893993e-02 1.357862e-02 6.180282e-03 2.594345e-03 8.628646e-04 4.611589e-05 -3.157607e-04 -4.518481e-04 -4.778618e-04 -4.527132e-04 -4.063684e-04 -3.538569e-04 -3.024450e-04 -2.553656e-04 -2.137794e-04 -1.778121e-04 -1.471039e-04 -1.210973e-04 -9.918472e-05 -8.078096e-05 -6.535493e-05 -5.244056e-05
2.480559e-04 2.728766e-04 3.009582e-04 3.328208e-04 3.690783e-04 4.104556e-04 4.578096e-04 5.121508e-04 5.746684e-04 6.467548e-04 7.300286e-04 8.263514e-04 9.378339e-04 1.066830e-03 1.215935e-03 1.388057e-03 1.586809e-03 1.817990e-03 2.094323e-03 2.449695e-03 2.980152e-03 3.958552e-03 6.142417e-03 1.152704e-02 2.469898e-02 5.192950e-02 7.680451e-02 -1.160480e-02 -1.626321e-01 -5.219480e-02 8.811871e-02 1.678492e-01 3.376416e-01 4.337734e-01 2.684722e-01 1.190447e-01 4.642285e-02 1.679341e-02 5.524457e-03 1.462658e-03 1.280336e-04 -2.109588e-04 -2.121558e-04 -1.198284e-04 -1.983662e-05 6.181171e-05 1.208291e-04 1.600019e-04 1.837263e-04 1.961264e-04 2.005394e-04 1.994937e-04 1.948377e-04 1.878937e-04 1.795923e-04 1.705792e-04 1.612964e-04 1.520404e-04 1.430055e-04 1.343143e-04 1.260390e-04
-4.224077e-05 -6.030163e-05 -8.330122e-05 -1.126738e-04 -1.503259e-04 -1.988146e-04 -2.616033e-04 -3.434330e-04 -4.508687e-04 -5.931162e-04 -7.832629e-04 -1.040195e-03 -1.391619e-03 -1.878918e-03 -2.565135e-03 -3.548403e-03 -4.985103e-03 -7.130822e-03 -1.041458e-02 -1.557618e-02 -2.392332e-02 -3.780656e-02 -6.143121e-02 -1.018553e-01 -1.680671e-01 -2.570037e-01 -2.947318e-01 -9.746035e-02 1.539775e-01 2.458947e-03 -2.645666e-01 -5.011031e-01 -8.649260e-01 -1.031865e+00 -7.505833e-01 -4.233384e-01 -2.182751e-01 -1.101650e-01 -5.577503e-02 -2.844403e-02 -1.449828e-02 -7.244595e-03 -3.408230e-03 -1.358739e-03 -2.645830e-04 3.092386e-04 5.958557e-04 7.229341e-04 7.616659e-04 7.523118e-04 7.178501e-04 6.714365e-04 6.205661e-04 5.694389e-04 5.203246e-04 4.743616e-04 4.320290e-04 3.934276e-04 3.584479e-04 3.268709e-04 2.984273e-04
-3.317323e-04 -3.920489e-04 -4.652370e-04 -5.545722e-04 -6.643166e-04 -8.000668e-04 -9.692437e-04 -1.181791e-03 -1.451186e-03 -1.795917e-03 -2.241688e-03 -2.824745e-03 -3.596993e-03 -4.634014e-03 -6.047848e-03 -8.007753e-03 -1.077457e-02 -1.475837e-02 -2.061619e-02 -2.941659e-02 -4.290674e-02 -6.389556e-02 -9.658558e-02 -1.458920e-01 -2.121509e-01 -2.723658e-01 -2.468854e-01 -3.720551e-02 2.468493e-01 3.370729e-01 2.225279e-01 -1.465802e-02 -3.615446e-01 -6.275480e-01 -6.139282e-01 -4.368536e-01 -2.639811e-01 -1.477379e-01 -7.988353e-02 -4.241396e-02 -2.210023e-02 -1.111983e-02 -5.176946e-03 -1.965549e-03 -2.486183e-04 6.434158e-04 1.077607e-03 1.257833e-03 1.298653e-03 1.264990e-03 1.193788e-03 1.106025e-03 1.013474e-03 9.225756e-04 8.366653e-04 7.572852e-04 6.849503e-04 6.196034e-04 5.608837e-04 5.082851e-04 4.612477e-04
-6.113158e-04 -7.111903e-04 -8.310351e-04 -9.756713e-04 -1.151301e-03 -1.365968e-03 -1.630198e-03 -1.957893e-03 -2.367598e-03 -2.884308e-03 -3.542092e-03 -4.387932e-03 -5.487406e-03 -6.933199e-03 -8.857965e-03 -1.145385e-02 -1.500211e-02 -1.991737e-02 -2.681099e-02 -3.657254e-02 -5.044270e-02 -6.996755e-02 -9.648808e-02 -1.292829e-01 -1.607829e-01 -1.685557e-01 -1.139252e-01 2.574258e-02 1.997348e-01 3.075432e-01 2.978028e-01 1.782807e-01 -1.155501e-02 -1.840404e-01 -2.564927e-01 -2.330484e-01 -1.702493e-01 -1.099282e-01 -6.594774e-02 -3.762257e-02 -2.048205e-02 -1.045227e-02 -4.707588e-03 -1.481232e-03 2.824754e-04 1.202267e-03 1.638355e-03 1.800248e-03 1.809907e-03 1.738333e-03 1.626731e-03 1.498798e-03 1.367916e-03 1.241372e-03 1.122871e-03 1.014025e-03 9.152459e-04 8.262827e-04 7.465357e-04 6.752473e-04 6.116107e-04
-8.726343e-04 -1.007567e-03 -1.168277e-03 -1.360702e-03 -1.592394e-03 -1.873018e-03 -2.215044e-03 -2.634677e-03 -3.153140e-03 -3.798455e-03 -4.607909e-03 -5.631513e-03 -6.936826e-03 -8.615701e-03 -1.079356e-02 -1.364190e-02 -1.739411e-02 -2.236326e-02 -2.895518e-02 -3.765801e-02 -4.895949e-02 -6.308356e-02 -7.933973e-02 -9.481383e-02 -1.024370e-01 -8.995137e-02 -4.407404e-02 3.662815e-02 1.295603e-01 1.967732e-01 2.101486e-01 1.652094e-01 8.079864e-02 -7.154491e-03 -6.536994e-02 -8.432560e-02 -7.606947e-02 -5.717934e-02 -3.828245e-02 -2.347352e-02 -1.318926e-02 -6.541068e-03 -2.453291e-03 -4.855746e-05 1.293935e-03 1.984328e-03 2.283713e-03 2.354709e-03 2.297142e-03 2.171547e-03 2.014146e-03 1.846209e-03 1.679863e-03 1.521686e-03 1.374909e-03 1.240788e-03 1.119429e-03 1.010307e-03 9.125716e-04 8.252353e-04 7.472809e-04
-1.108637e-03 -1.272756e-03 -1.466873e-03 -1.697549e-03 -1.973015e-03 -2.303655e-03 -2.702635e-03 -3.186740e-03 -3.777477e-03 -4.502531e-03 -5.397674e-03 -6.509253e-03 -7.897351e-03 -9.639681e-03 -1.183603e-02 -1.461257e-02 -1.812418e-02 -2.255038e-02 -2.807560e-02 -3.483529e-02 -4.279495e-02 -5.151285e-02 -5.973970e-02 -6.489171e-02 -6.270718e-02 -4.788461e-02 -1.669687e-02 2.878519e-02 7.824833e-02 1.164206e-01 1.307307e-01 1.175064e-01 8.345618e-02 4.237601e-02 8.029556e-03 -1.250183e-02 -1.992126e-02 -1.895873e-02 -1.436695e-02 -9.188662e-03 -4.811821e-03 -1.605601e-03 5.274653e-04 1.830663e-03 2.548291e-03 2.877042e-03 2.959919e-03 2.894981e-03 2.746897e-03 2.557036e-03 2.351101e-03 2.144531e-03 1.946166e-03 1.760677e-03 1.590157e-03 1.435137e-03 1.295240e-03 1.169594e-03 1.057087e-03 9.565175e-04 8.666914e-04
-1.313974e-03 -1.500562e-03 -1.719666e-03 -1.977983e-03 -2.283785e-03 -2.647323e-03 -3.081336e-03 -3.601700e-03 -4.228230e-03 -4.985662e-03 -5.904832e-03 -7.024013e-03 -8.390311e-03 -1.006082e-02 -1.210298e-02 -1.459286e-02 -1.760914e-02 -2.121874e-02 -2.544727e-02 -3.022424e-02 -3.529093e-02 -4.006336e-02 -4.346778e-02 -4.382716e-02 -3.897921e-02 -2.687686e-02 -6.770184e-03 1.947239e-02 4.695848e-02 6.912917e-02 8.042538e-02 7.870478e-02 6.606867e-02 4.771885e-02 2.945469e-02 1.527167e-02 6.442286e-03 2.182366e-03 9.057298e-04 1.149172e-03 1.927814e-03 2.716671e-03 3.302570e-03 3.642233e-03 3.767142e-03 3.731411e-03 3.587812e-03 3.379165e-03 3.136976e-03 2.882916e-03 2.631053e-03 2.389951e-03 2.164381e-03 1.956584e-03 1.767184e-03 1.595809e-03 1.441512e-03 1.303046e-03 1.179040e-03 1.068109e-03 9.689164e-04
-1.485195e-03 -1.687230e-03 -1.922653e-03 -2.197874e-03 -2.520667e-03 -2.900468e-03 -3.348731e-03 -3.879351e-03 -4.509130e-03 -5.258281e-03 -6.150908e-03 -7.215342e-03 -8.484134e-03 -9.993297e-03 -1.178016e-02 -1.387872e-02 -1.631076e-02 -1.907034e-02 -2.209832e-02 -2.524402e-02 -2.821336e-02 -3.051077e-02 -3.139851e-02 -2.992202e-02 -2.507041e-02 -1.612346e-02 -3.137491e-03 1.264790e-02 2.880959e-02 4.233890e-02 5.065909e-02 5.256888e-02 4.862798e-02 4.080218e-02 3.157859e-02 2.303763e-02 1.633419e-02 1.171179e-02 8.841093e-03 7.192459e-03 6.277470e-03 5.743402e-03 5.374986e-03 5.059474e-03 4.748137e-03 4.426891e-03 4.097639e-03 3.767892e-03 3.445695e-03 3.137567e-03 2.847970e-03 2.579458e-03 2.333065e-03 2.108730e-03 1.905655e-03 1.722590e-03 1.558045e-03 1.410431e-03 1.278160e-03 1.159699e-03 1.053616e-03
-1.620754e-03 -1.831398e-03 -2.074851e-03 -2.356913e-03 -2.684468e-03 -3.065675e-03 -3.510170e-03 -4.029263e-03 -4.636122e-03 -5.345869e-03 -6.175525e-03 -7.143664e-03 -8.269536e-03 -9.571345e-03 -1.106314e-02 -1.274962e-02 -1.461792e-02 -1.662532e-02 -1.868220e-02 -2.063060e-02 -2.222142e-02 -2.309851e-02 -2.280455e-02 -2.083038e-02 -1.672719e-02 -1.028122e-02 -1.707491e-03 8.229727e-03 1.827361e-02 2.695050e-02 3.298758e-02 3.569870e-02 3.516372e-02 3.212590e-02 2.767183e-02 2.285752e-02 1.844382e-02 1.481413e-02 1.204002e-02 1.000896e-02 8.540861e-03 7.461634e-03 6.634988e-03 5.967315e-03 5.400226e-03 4.900035e-03 4.448558e-03 4.036464e-03 3.659020e-03 3.313615e-03 2.998442e-03 2.711873e-03 2.452217e-03 2.217661e-03 2.006307e-03 1.816220e-03 1.645491e-03 1.492278e-03 1.354842e-03 1.231566e-03 1.120963e-03
-1.720842e-03 -1.933842e-03 -2.177899e-03 -2.457994e-03 -2.779897e-03 -3.150252e-03 -3.576647e-03 -4.067641e-03 -4.632721e-03 -5.282127e-03 -6.026465e-03 -6.875992e-03 -7.839388e-03 -8.921782e-03 -1.012173e-02 -1.142676e-02 -1.280726e-02 -1.420833e-02 -1.554027e-02 -1.666883e-02 -1.740839e-02 -1.752338e-02 -1.674524e-02 -1.481258e-02 -1.153716e-02 -6.887445e-03 -1.064806e-03 5.464950e-03 1.201866e-02 1.782816e-02 2.222331e-02 2.479975e-02 2.550550e-02 2.461528e-02 2.261141e-02 2.002783e-02 1.731951e-02 1.479411e-02 1.260710e-02 1.079693e-02 9.332267e-03 8.152178e-03 7.192077e-03 6.396527e-03 5.723110e-03 5.141593e-03 4.631317e-03 4.178406e-03 3.773465e-03 3.409914e-03 3.082879e-03 2.788508e-03 2.523568e-03 2.285223e-03 2.070914e-03 1.878302e-03 1.705238e-03 1.549754e-03 1.410048e-03 1.284480e-03 1.171566e-03
-1.787108e-03 -1.997067e-03 -2.235477e-03 -2.506405e-03 -2.814423e-03 -3.164615e-03 -3.562549e-03 -4.014182e-03 -4.525679e-03 -5.103083e-03 -5.751786e-03 -6.475699e-03 -7.276011e-03 -8.149415e-03 -9.085652e-03 -1.006428e-02 -1.105065e-02 -1.199135e-02 -1.280972e-02 -1.340272e-02 -1.364122e-02 -1.337646e-02 -1.245574e-02 -1.074909e-02 -8.185521e-03 -4.792137e-03 -7.236644e-04 3.732768e-03 8.188643e-03 1.222018e-02 1.545359e-02 1.764269e-02 1.871274e-02 1.875698e-02 1.799121e-02 1.668661e-02 1.510558e-02 1.345825e-02 1.188554e-02 1.046344e-02 9.218888e-03 8.148121e-03 7.232044e-03 6.446628e-03 5.768739e-03 5.178661e-03 4.660664e-03 4.202610e-03 3.795237e-03 3.431424e-03 3.105587e-03 2.813223e-03 2.550594e-03 2.314510e-03 2.102192e-03 1.911185e-03 1.739295e-03 1.584554e-03 1.445190e-03 1.319610e-03 1.206381e-03
-1.822311e-03 -2.024839e-03 -2.252675e-03 -2.508966e-03 -2.797119e-03 -3.120759e-03 -3.483629e-03 -3.889435e-03 -4.341590e-03 -4.842840e-03 -5.394712e-03 -5.996733e-03 -6.645374e-03 -7.332649e-03 -8.044358e-03 -8.757988e-03 -9.440410e-03 -1.004569e-02 -1.051355e-02 -1.076937e-02 -1.072690e-02 -1.029484e-02 -9.388406e-03 -7.945629e-03 -5.946675e-03 -3.431979e-03 -5.132338e-04 2.628925e-03 5.764082e-03 8.646418e-03 1.105671e-02 1.284041e-02 1.393088e-02 1.435151e-02 1.419816e-02 1.360936e-02 1.273448e-02 1.170836e-02 1.063666e-02 9.591756e-03 8.616125e-03 7.729395e-03 6.936007e-03 6.231677e-03 5.608025e-03 5.055467e-03 4.564765e-03 4.127716e-03 3.737319e-03 3.387707e-03 3.073971e-03 2.791980e-03 2.538217e-03 2.309647e-03 2.103625e-03 1.917817e-03 1.750149e-03 1.598771e-03 1.462026e-03 1.338426e-03 1.226634e-03
-1.829959e-03 -2.021715e-03 -2.235380e-03 -2.473241e-03 -2.737657e-03 -3.030979e-03 -3.355418e-03 -3.712867e-03 -4.104629e-03 -4.531058e-03 -4.991064e-03 -5.481468e-03 -5.996183e-03 -6.525229e-03 -7.053581e-03 -7.559960e-03 -8.015694e-03 -8.383931e-03 -8.619590e-03 -8.670551e-03 -8.480661e-03 -7.995020e-03 -7.167681e-03 -5.971266e-03 -4.407096e-03 -2.513523e-03 -3.696180e-04 1.908286e-03 4.178253e-03 6.291321e-03 8.113260e-03 9.544312e-03 1.053196e-02 1.107387e-02 1.121110e-02 1.101458e-02 1.056908e-02 9.958771e-03 9.257108e-03 8.521622e-03 7.793033e-03 7.097182e-03 6.448271e-03 5.852301e-03 5.310030e-03 4.819211e-03 4.376120e-03 3.976499e-03 3.616095e-03 3.290913e-03 2.997329e-03 2.732098e-03 2.492334e-03 2.275471e-03 2.079224e-03 1.901550e-03 1.740617e-03 1.594779e-03 1.462554e-03 1.342609e-03 1.233738e-03
-1.813971e-03 -1.992618e-03 -2.189747e-03 -2.406893e-03 -2.645522e-03 -2.906940e-03 -3.192151e-03 -3.501682e-03 -3.835333e-03 -4.191865e-03 -4.568599e-03 -4.960927e-03 -5.361733e-03 -5.760751e-03 -6.143887e-03 -6.492613e-03 -6.783539e-03 -6.988361e-03 -7.074430e-03 -7.006192e-03 -6.747751e-03 -6.266678e-03 -5.538919e-03 -4.554344e-03 -3.322025e-03 -1.873983e-03 -2.660878e-04 1.424945e-03 3.108675e-03 4.691347e-03 6.087694e-03 7.231656e-03 8.083680e-03 8.633189e-03 8.896088e-03 8.908465e-03 8.718399e-03 8.377833e-03 7.936037e-03 7.435367e-03 6.909321e-03 6.382421e-03 5.871250e-03 5.386014e-03 4.932195e-03 4.512008e-03 4.125556e-03 3.771675e-03 3.448517e-03 3.153921e-03 2.885636e-03 2.641456e-03 2.419282e-03 2.217155e-03 2.033265e-03 1.865950e-03 1.713690e-03 1.575097e-03 1.448905e-03 1.333962e-03 1.229221e-03
-1.778387e-03 -1.942489e-03 -2.121789e-03 -2.317197e-03 -2.529462e-03 -2.759077e-03 -3.006152e-03 -3.270252e-03 -3.550193e-03 -3.843784e-03 -4.147533e-03 -4.456294e-03 -4.762898e-03 -5.057762e-03 -5.328547e-03 -5.559920e-03 -5.733517e-03 -5.828221e-03 -5.820893e-03 -5.687685e-03 -5.405992e-03 -4.957051e-03 -4.328997e-03 -3.520030e-03 -2.541141e-03 -1.417738e-03 -1.895295e-04 1.091733e-03 2.366668e-03 3.574298e-03 4.658716e-03 5.575155e-03 6.294300e-03 6.804126e-03 7.109088e-03 7.227162e-03 7.185579e-03 7.016232e-03 6.751598e-03 6.421689e-03 6.052190e-03 5.663685e-03 5.271703e-03 4.887278e-03 4.517743e-03 4.167572e-03 3.839145e-03 3.533375e-03 3.250203e-03 2.988947e-03 2.748562e-03 2.527806e-03 2.325355e-03 2.139868e-03 1.970035e-03 1.814605e-03 1.672390e-03 1.542282e-03 1.423248e-03 1.314334e-03 1.214659e-03
-1.727144e-03 -1.876023e-03 -2.037082e-03 -2.210730e-03 -2.397166e-03 -2.596290e-03 -2.807591e-03 -3.030012e-03 -3.261791e-03 -3.500265e-03 -3.741666e-03 -3.980885e-03 -4.211254e-03 -4.424339e-03 -4.609805e-03 -4.755387e-03 -4.847038e-03 -4.869315e-03 -4.806078e-03 -4.641539e-03 -4.361675e-03 -3.955949e-03 -3.419183e-03 -2.753356e-03 -1.968997e-03 -1.085823e-03 -1.323333e-04 8.558170e-04 1.838592e-03 2.775182e-03 3.627911e-03 4.365796e-03 4.967181e-03 5.421031e-03 5.726785e-03 5.892955e-03 5.934871e-03 5.872067e-03 5.725770e-03 5.516817e-03 5.264184e-03 4.984120e-03 4.689830e-03 4.391530e-03 4.096764e-03 3.810824e-03 3.537207e-03 3.278033e-03 3.034405e-03 2.806704e-03 2.594808e-03 2.398268e-03 2.216422e-03 2.048489e-03 1.893624e-03 1.750960e-03 1.619639e-03 1.498823e-03 1.387713e-03 1.285549e-03 1.191617e-03
-1.663907e-03 -1.797502e-03 -1.940585e-03 -2.093190e-03 -2.255118e-03 -2.425859e-03 -2.604507e-03 -2.789648e-03 -2.979242e-03 -3.170489e-03 -3.359689e-03 -3.542103e-03 -3.711833e-03 -3.861739e-03 -3.983421e-03 -4.067300e-03 -4.102829e-03 -4.078879e-03 -3.984327e-03 -3.808847e-03 -3.543900e-03 -3.183852e-03 -2.727113e-03 -2.177152e-03 -1.543190e-03 -8.404048e-04 -8.947725e-05 6.845445e-04 1.454025e-03 2.190961e-03 2.869342e-03 3.467316e-03 3.968830e-03 4.364536e-03 4.651878e-03 4.834433e-03 4.920708e-03 4.922635e-03 4.854027e-03 4.729196e-03 4.561868e-03 4.364443e-03 4.147573e-03 3.920024e-03 3.688726e-03 3.458950e-03 3.234547e-03 3.018201e-03 2.811675e-03 2.616021e-03 2.431760e-03 2.259030e-03 2.097691e-03 1.947420e-03 1.807765e-03 1.678203e-03 1.558164e-03 1.447065e-03 1.344318e-03 1.249350e-03 1.161606e-03
-1.591972e-03 -1.710685e-03 -1.836556e-03 -1.969347e-03 -2.108587e-03 -2.253510e-03 -2.402988e-03 -2.555443e-03 -2.708771e-03 -2.860247e-03 -3.006442e-03 -3.143146e-03 -3.265320e-03 -3.367081e-03 -3.441750e-03 -3.481970e-03 -3.479930e-03 -3.427703e-03 -3.317702e-03 -3.143263e-03 -2.899322e-03 -2.583131e-03 -2.194953e-03 -1.738625e-03 -1.221893e-03 -6.564183e-04 -5.738746e-05 5.572872e-04 1.168127e-03 1.755486e-03 2.301025e-03 2.789060e-03 3.207614e-03 3.549049e-03 3.810213e-03 3.992148e-03 4.099438e-03 4.139332e-03 4.120793e-03 4.053594e-03 3.947548e-03 3.811924e-03 3.655058e-03 3.484146e-03 3.305175e-03 3.122965e-03 2.941267e-03 2.762910e-03 2.589945e-03 2.423794e-03 2.265376e-03 2.115224e-03 1.973580e-03 1.840465e-03 1.715745e-03 1.599173e-03 1.490430e-03 1.389146e-03 1.294926e-03 1.207362e-03 1.126042e-03
-1.514206e-03 -1.618776e-03 -1.728531e-03 -1.843053e-03 -1.961701e-03 -2.083570e-03 -2.207435e-03 -2.331693e-03 -2.454310e-03 -2.572762e-03 -2.683991e-03 -2.784370e-03 -2.869698e-03 -2.935222e-03 -2.975716e-03 -2.985602e-03 -2.959157e-03 -2.890785e-03 -2.775368e-03 -2.608676e-03 -2.387828e-03 -2.111749e-03 -1.781589e-03 -1.401033e-03 -9.764497e-04 -5.168199e-04 -3.342524e-05 4.607141e-04 9.516091e-04 1.425206e-03 1.868326e-03 2.269533e-03 2.619819e-03 2.913045e-03 3.146093e-03 3.318745e-03 3.433328e-03 3.494200e-03 3.507162e-03 3.478866e-03 3.416277e-03 3.326242e-03 3.215161e-03 3.088783e-03 2.952091e-03 2.809274e-03 2.663753e-03 2.518246e-03 2.374852e-03 2.235140e-03 2.100239e-03 1.970926e-03 1.847689e-03 1.730798e-03 1.620353e-03 1.516326e-03 1.418593e-03 1.326966e-03 1.241209e-03 1.161057e-03 1.086224e-03
-1.433037e-03 -1.524421e-03 -1.619360e-03 -1.717321e-03 -1.817577e-03 -1.919166e-03 -2.020858e-03 -2.121111e-03 -2.218041e-03 -2.309389e-03 -2.392502e-03 -2.464323e-03 -2.521414e-03 -2.559991e-03 -2.576011e-03 -2.565289e-03 -2.523669e-03 -2.447236e-03 -2.332577e-03 -2.177070e-03 -1.979193e-03 -1.738815e-03 -1.457445e-03 -1.138400e-03 -7.868586e-04 -4.097706e-04 -1.561121e-05 3.860137e-04 7.848871e-04 1.170778e-03 1.534055e-03 1.866257e-03 2.160548e-03 2.412030e-03 2.617873e-03 2.777278e-03 2.891282e-03 2.962456e-03 2.994538e-03 2.992044e-03 2.959899e-03 2.903122e-03 2.826572e-03 2.734758e-03 2.631732e-03 2.521020e-03 2.405615e-03 2.287990e-03 2.170144e-03 2.053650e-03 1.939714e-03 1.829231e-03 1.722841e-03 1.620972e-03 1.523888e-03 1.431719e-03 1.344496e-03 1.262169e-03 1.184634e-03 1.111742e-03 1.043316e-03
-1.350462e-03 -1.429747e-03 -1.511263e-03 -1.594423e-03 -1.678467e-03 -1.762438e-03 -1.845156e-03 -1.925196e-03 -2.000864e-03 -2.070187e-03 -2.130909e-03 -2.180497e-03 -2.216173e-03 -2.234961e-03 -2.233762e-03 -2.209463e-03 -2.159068e-03 -2.079862e-03 -1.969606e-03 -1.826733e-03 -1.650555e-03 -1.441447e-03 -1.200998e-03 -9.320936e-04 -6.389244e-04 -3.268981e-04 -2.451249e-06 3.272319e-04 6.545751e-04 9.720119e-04 1.272396e-03 1.549382e-03 1.797736e-03 2.013558e-03 2.194384e-03 2.339192e-03 2.448292e-03 2.523152e-03 2.566160e-03 2.580374e-03 2.569271e-03 2.536513e-03 2.485757e-03 2.420506e-03 2.343998e-03 2.259141e-03 2.168481e-03 2.074193e-03 1.978095e-03 1.881677e-03 1.786131e-03 1.692388e-03 1.601159e-03 1.512966e-03 1.428176e-03 1.347029e-03 1.269665e-03 1.196142e-03 1.126454e-03 1.060550e-03 9.983400e-04
-1.268085e-03 -1.336411e-03 -1.405917e-03 -1.476001e-03 -1.545911e-03 -1.614734e-03 -1.681377e-03 -1.744554e-03 -1.802778e-03 -1.854357e-03 -1.897401e-03 -1.929839e-03 -1.949451e-03 -1.953914e-03 -1.940874e-03 -1.908030e-03 -1.853237e-03 -1.774638e-03 -1.670792e-03 -1.540819e-03 -1.384532e-03 -1.202557e-03 -9.964180e-04 -7.685777e-04 -5.224236e-04 -2.621899e-04 7.185133e-06 2.802604e-04 5.513398e-04 8.147476e-04 1.065107e-03 1.297601e-03 1.508187e-03 1.693752e-03 1.852204e-03 1.982477e-03 2.084488e-03 2.159020e-03 2.207582e-03 2.232237e-03 2.235432e-03 2.219834e-03 2.188184e-03 2.143180e-03 2.087384e-03 2.023160e-03 1.952631e-03 1.877666e-03 1.799871e-03 1.720603e-03 1.640987e-03 1.561933e-03 1.484168e-03 1.408257e-03 1.334623e-03 1.263578e-03 1.195334e-03 1.130025e-03 1.067722e-03 1.008446e-03 9.521754e-04
-1.187153e-03 -1.245659e-03 -1.304532e-03 -1.363177e-03 -1.420880e-03 -1.476793e-03 -1.529928e-03 -1.579150e-03 -1.623175e-03 -1.660571e-03 -1.689774e-03 -1.709108e-03 -1.716811e-03 -1.711088e-03 -1.690158e-03 -1.652333e-03 -1.596093e-03 -1.520183e-03 -1.423705e-03 -1.306221e-03 -1.167837e-03 -1.009278e-03 -8.319382e-04 -6.378972e-04 -4.298952e-04 -2.112695e-04 1.415418e-05 2.422071e-04 4.685527e-04 6.888778e-04 8.990865e-04 1.095479e-03 1.274906e-03 1.434876e-03 1.573631e-03 1.690158e-03 1.784167e-03 1.856024e-03 1.906662e-03 1.937464e-03 1.950151e-03 1.946659e-03 1.929038e-03 1.899355e-03 1.859623e-03 1.811744e-03 1.757467e-03 1.698369e-03 1.635840e-03 1.571086e-03 1.505130e-03 1.438832e-03 1.372896e-03 1.307892e-03 1.244269e-03 1.182375e-03 1.122468e-03 1.064733e-03 1.009296e-03 9.562286e-04 9.055651e-04
-1.108603e-03 -1.158396e-03 -1.207935e-03 -1.256658e-03 -1.303900e-03 -1.348893e-03 -1.390762e-03 -1.428517e-03 -1.461064e-03 -1.487207e-03 -1.505664e-03 -1.515085e-03 -1.514087e-03 -1.501287e-03 -1.475348e-03 -1.435039e-03 -1.379295e-03 -1.307284e-03 -1.218474e-03 -1.112708e-03 -9.902504e-04 -8.518438e-04 -6.987288e-04 -5.326494e-04 -3.558283e-04 -1.709131e-04 1.910498e-05 2.109980e-04 4.014260e-04 5.870727e-04 7.647812e-04 9.316808e-04 1.085295e-03 1.223626e-03 1.345201e-03 1.449101e-03 1.534940e-03 1.602834e-03 1.653339e-03 1.687373e-03 1.706142e-03 1.711052e-03 1.703631e-03 1.685458e-03 1.658108e-03 1.623099e-03 1.581861e-03 1.535706e-03 1.485821e-03 1.433254e-03 1.378922e-03 1.323607e-03 1.267972e-03 1.212568e-03 1.157843e-03 1.104160e-03 1.051800e-03 1.000980e-03 9.518591e-04 9.045496e-04 8.591230e-04
-1.033116e-03 -1.075236e-03 -1.116646e-03 -1.156822e-03 -1.195162e-03 -1.230981e-03 -1.263512e-03 -1.291906e-03 -1.315238e-03 -1.332519e-03 -1.342703e-03 -1.344716e-03 -1.337473e-03 -1.319916e-03 -1.291048e-03 -1.249979e-03 -1.195971e-03 -1.128488e-03 -1.047246e-03 -9.522562e-04 -8.438660e-04 -7.227857e-04 -5.901017e-04 -4.472729e-04 -2.961077e-04 -1.387204e-04 2.253001e-05 1.851193e-04 3.464478e-04 5.039377e-04 6.551302e-04 7.977757e-04 9.299125e-04 1.049927e-03 1.156595e-03 1.249098e-03 1.327021e-03 1.390333e-03 1.439341e-03 1.474650e-03 1.497100e-03 1.507708e-03 1.507613e-03 1.498020e-03 1.480156e-03 1.455228e-03 1.424394e-03 1.388740e-03 1.349266e-03 1.306873e-03 1.262365e-03 1.216443e-03 1.169715e-03 1.122696e-03 1.075821e-03 1.029445e-03 9.838613e-04 9.393003e-04 8.959428e-04 8.539250e-04 8.133458e-04
-9.611546e-04 -9.965639e-04 -1.030939e-03 -1.063801e-03 -1.094612e-03 -1.122768e-03 -1.147605e-03 -1.168402e-03 -1.184386e-03 -1.194740e-03 -1.198621e-03 -1.195175e-03 -1.183557e-03 -1.162963e-03 -1.132653e-03 -1.091989e-03 -1.040470e-03 -9.777665e-04 -9.037545e-04 -8.185491e-04 -7.225275e-04 -6.163464e-04 -5.009472e-04 -3.775491e-04 -2.476290e-04 -1.128865e-04 2.480336e-05 1.634481e-04 3.010046e-04 4.354490e-04 5.648473e-04 6.874207e-04 8.016031e-04 9.060857e-04 9.998487e-04 1.082177e-03 1.152661e-03 1.211184e-03 1.257898e-03 1.293188e-03 1.317637e-03 1.331981e-03 1.337065e-03 1.333809e-03 1.323166e-03 1.306091e-03 1.283522e-03 1.256348e-03 1.225406e-03 1.191463e-03 1.155215e-03 1.117282e-03 1.078209e-03 1.038471e-03 9.984731e-04 9.585596e-04 9.190171e-04 8.800814e-04 8.419430e-04 8.047523e-04 7.686257e-04
-8.930063e-04 -9.225828e-04 -9.509046e-04 -9.775420e-04 -1.002018e-03 -1.023808e-03 -1.042342e-03 -1.057012e-03 -1.067174e-03 -1.072161e-03 -1.071295e-03 -1.063901e-03 -1.049324e-03 -1.026955e-03 -9.962502e-04 -9.567585e-04 -9.081474e-04 -8.502290e-04 -7.829848e-04 -7.065867e-04 -6.214127e-04 -5.280565e-04 -4.273288e-04 -3.202492e-04 -2.080286e-04 -9.204158e-05 2.620957e-05 1.451390e-04 2.631262e-04 3.785677e-04 4.899284e-04 5.957900e-04 6.948926e-04 7.861695e-04 8.687707e-04 9.420765e-04 1.005701e-03 1.059483e-03 1.103475e-03 1.137913e-03 1.163197e-03 1.179857e-03 1.188523e-03 1.189891e-03 1.184704e-03 1.173717e-03 1.157682e-03 1.137329e-03 1.113351e-03 1.086397e-03 1.057065e-03 1.025893e-03 9.933685e-04 9.599176e-04 9.259146e-04 8.916820e-04 8.574947e-04 8.235842e-04 7.901426e-04 7.573269e-04 7.252633e-04
-8.288207e-04 -8.533540e-04 -8.764944e-04 -8.978602e-04 -9.170334e-04 -9.335613e-04 -9.469595e-04 -9.567168e-04 -9.623018e-04 -9.631717e-04 -9.587828e-04 -9.486041e-04 -9.321318e-04 -9.089067e-04 -8.785323e-04 -8.406950e-04 -7.951828e-04 -7.419048e-04 -6.809085e-04 -6.123933e-04 -5.367213e-04 -4.544218e-04 -3.661905e-04 -2.728810e-04 -1.754906e-04 -7.513783e-05 2.696530e-05 1.295463e-04 2.313092e-04 3.309725e-04 4.273076e-04 5.191744e-04 6.055529e-04 6.855687e-04 7.585121e-04 8.238489e-04 8.812248e-04 9.304612e-04 9.715452e-04 1.004615e-03 1.029940e-03 1.047899e-03 1.058959e-03 1.063652e-03 1.062551e-03 1.056253e-03 1.045362e-03 1.030473e-03 1.012159e-03 9.909652e-04 9.673996e-04 9.419306e-04 9.149832e-04 8.869393e-04 8.581378e-04 8.288759e-04 7.994119e-04 7.699673e-04 7.407300e-04 7.118577e-04 6.834804e-04
-7.686397e-04 -7.888329e-04 -8.075584e-04 -8.244802e-04 -8.392354e-04 -8.514356e-04 -8.606714e-04 -8.665161e-04 -8.685327e-04 -8.662812e-04 -8.593282e-04 -8.472575e-04 -8.296828e-04 -8.062608e-04 -7.767059e-04 -7.408050e-04 -6.984316e-04 -6.495599e-04 -5.942769e-04 -5.327914e-04 -4.654406e-04 -3.926922e-04 -3.151418e-04 -2.335059e-04 -1.486092e-04 -6.136710e-05 2.723572e-05 1.161707e-04 2.043932e-04 2.908711e-04 3.746132e-04 4.546965e-04 5.302893e-04 6.006715e-04 6.652490e-04 7.235626e-04 7.752928e-04 8.202574e-04 8.584054e-04 8.898071e-04 9.146401e-04 9.331744e-04 9.457549e-04 9.527850e-04 9.547095e-04 9.519995e-04 9.451383e-04 9.346093e-04 9.208859e-04 9.044234e-04 8.856526e-04 8.649757e-04 8.427631e-04 8.193521e-04 7.950464e-04 7.701164e-04 7.448006e-04 7.193074e-04 6.938164e-04 6.684814e-04 6.434322e-04
-7.124232e-04 -7.288973e-04 -7.438770e-04 -7.570689e-04 -7.681596e-04 -7.768183e-04 -7.827004e-04 -7.854516e-04 -7.847138e-04 -7.801318e-04 -7.713614e-04 -7.580780e-04 -7.399868e-04 -7.168335e-04 -6.884156e-04 -6.545932e-04 -6.152997e-04 -5.705524e-04 -5.204600e-04 -4.652293e-04 -4.051687e-04 -3.406890e-04 -2.723000e-04 -2.006044e-04 -1.262872e-04 -5.010173e-05 2.714688e-05 1.046215e-04 1.814738e-04 2.568662e-04 3.299936e-04 4.001032e-04 4.665129e-04 5.286266e-04 5.859453e-04 6.380751e-04 6.847307e-04 7.257351e-04 7.610159e-04 7.905981e-04 8.145945e-04 8.331950e-04 8.466537e-04 8.552763e-04 8.594075e-04 8.594183e-04 8.556957e-04 8.486321e-04 8.386167e-04 8.260292e-04 8.112330e-04 7.945720e-04 7.763668e-04 7.569130e-04 7.364805e-04 7.153126e-04 6.936271e-04 6.716168e-04 6.494507e-04 6.272758e-04 6.052185e-04
-6.600708e-04 -6.733705e-04 -6.851849e-04 -6.952591e-04 -7.033243e-04 -7.091000e-04 -7.122973e-04 -7.126232e-04 -7.097854e-04 -7.034982e-04 -6.934891e-04 -6.795063e-04 -6.613263e-04 -6.387630e-04 -6.116754e-04 -5.799770e-04 -5.436430e-04 -5.027175e-04 -4.573197e-04 -4.076476e-04 -3.539798e-04 -2.966758e-04 -2.361722e-04 -1.729772e-04 -1.076623e-04 -4.085082e-05 2.679504e-05 9.458935e-05 1.618386e-04 2.278586e-04 2.919904e-04 3.536164e-04 4.121738e-04 4.671666e-04 5.181746e-04 5.648597e-04 6.069691e-04 6.443360e-04 6.768769e-04 7.045872e-04 7.275342e-04 7.458494e-04 7.597189e-04 7.693739e-04 7.750810e-04 7.771327e-04 7.758383e-04 7.715158e-04 7.644851e-04 7.550617e-04 7.435515e-04 7.302471e-04 7.154247e-04 6.993421e-04 6.822371e-04 6.643270e-04 6.458086e-04 6.268583e-04 6.076332e-04 5.882714e-04 5.688937e-04
