5.257480e-04 5.382256e-04 5.499832e-04 5.608614e-04 5.706876e-04 5.792760e-04 5.864287e-04 5.919369e-04 5.955823e-04 5.971399e-04 5.963802e-04 5.930733e-04 5.869925e-04 5.779190e-04 5.656473e-04 5.499908e-04 5.307878e-04 5.079079e-04 4.812582e-04 4.507892e-04 4.165010e-04 3.784475e-04 3.367406e-04 2.915528e-04 2.431181e-04 1.917315e-04 1.377462e-04 8.156960e-05 2.365674e-05 -3.549757e-05 -9.536822e-05 -1.554105e-04 -2.150714e-04 -2.738015e-04 -3.310670e-04 -3.863603e-04 -4.392109e-04 -4.891938e-04 -5.359374e-04 -5.791287e-04 -6.185170e-04 -6.539157e-04 -6.852023e-04 -7.123164e-04 -7.352565e-04 -7.540753e-04 -7.688744e-04 -7.797981e-04 -7.870265e-04 -7.907692e-04 -7.912584e-04 -7.887425e-04 -7.834803e-04 -7.757356e-04 -7.657722e-04 -7.538499e-04 -7.402211e-04 -7.251278e-04 -7.087997e-04 -6.914522e-04 -6.732856e-04
5.635957e-04 5.782980e-04 5.923047e-04 6.054372e-04 6.174995e-04 6.282790e-04 6.375471e-04 6.450604e-04 6.505619e-04 6.537843e-04 6.544526e-04 6.522882e-04 6.470134e-04 6.383578e-04 6.260636e-04 6.098935e-04 5.896378e-04 5.651230e-04 5.362192e-04 5.028486e-04 4.649930e-04 4.226999e-04 3.760886e-04 3.253531e-04 2.707646e-04 2.126706e-04 1.514920e-04 8.771778e-05 2.189689e-05 -4.537171e-05 -1.134514e-04 -1.816816e-04 -2.493927e-04 -3.159211e-04 -3.806244e-04 -4.428955e-04 -5.021760e-04 -5.579667e-04 -6.098371e-04 -6.574313e-04 -7.004726e-04 -7.387642e-04 -7.721890e-04 -8.007056e-04 -8.243441e-04 -8.431990e-04 -8.574221e-04 -8.672137e-04 -8.728144e-04 -8.744965e-04 -8.725553e-04 -8.673012e-04 -8.590529e-04 -8.481308e-04 -8.348512e-04 -8.195220e-04 -8.024388e-04 -7.838818e-04 -7.641137e-04 -7.433784e-04 -7.218999e-04
6.041431e-04 6.214055e-04 6.380195e-04 6.537853e-04 6.684816e-04 6.818659e-04 6.936750e-04 7.036251e-04 7.114148e-04 7.167263e-04 7.192302e-04 7.185887e-04 7.144622e-04 7.065155e-04 6.944254e-04 6.778901e-04 6.566382e-04 6.304391e-04 5.991140e-04 5.625457e-04 5.206892e-04 4.735804e-04 4.213436e-04 3.641969e-04 3.024549e-04 2.365287e-04 1.669225e-04 9.422652e-05 1.910743e-05 -5.770525e-05 -1.354349e-04 -2.132755e-04 -2.904114e-04 -3.660367e-04 -4.393748e-04 -5.096967e-04 -5.763377e-04 -6.387108e-04 -6.963174e-04 -7.487554e-04 -7.957225e-04 -8.370174e-04 -8.725372e-04 -9.022720e-04 -9.262981e-04 -9.447683e-04 -9.579016e-04 -9.659724e-04 -9.692991e-04 -9.682330e-04 -9.631478e-04 -9.544302e-04 -9.424709e-04 -9.276572e-04 -9.103671e-04 -8.909634e-04 -8.697903e-04 -8.471704e-04 -8.234022e-04 -7.987596e-04 -7.734907e-04
6.474966e-04 6.676994e-04 6.873300e-04 7.061663e-04 7.239599e-04 7.404353e-04 7.552898e-04 7.681945e-04 7.787953e-04 7.867158e-04 7.915609e-04 7.929217e-04 7.903822e-04 7.835269e-04 7.719504e-04 7.552685e-04 7.331298e-04 7.052293e-04 6.713221e-04 6.312371e-04 5.848907e-04 5.322989e-04 4.735877e-04 4.090009e-04 3.389043e-04 2.637864e-04 1.842544e-04 1.010258e-04 1.491517e-05 -7.318274e-05 -1.623140e-04 -2.514890e-04 -3.397077e-04 -4.259860e-04 -5.093805e-04 -5.890125e-04 -6.640885e-04 -7.339178e-04 -7.979249e-04 -8.556581e-04 -9.067937e-04 -9.511344e-04 -9.886057e-04 -1.019247e-03 -1.043201e-03 -1.060700e-03 -1.072055e-03 -1.077635e-03 -1.077860e-03 -1.073180e-03 -1.064066e-03 -1.050997e-03 -1.034451e-03 -1.014893e-03 -9.927717e-04 -9.685135e-04 -9.425163e-04 -9.151482e-04 -8.867460e-04 -8.576140e-04 -8.280244e-04
6.937374e-04 7.173098e-04 7.404232e-04 7.628329e-04 7.842616e-04 8.043979e-04 8.228956e-04 8.393740e-04 8.534188e-04 8.645843e-04 8.723975e-04 8.763634e-04 8.759722e-04 8.707088e-04 8.600641e-04 8.435484e-04 8.207069e-04 7.911366e-04 7.545039e-04 7.105637e-04 6.591769e-04 6.003277e-04 5.341380e-04 4.608783e-04 3.809750e-04 2.950112e-04 2.037228e-04 1.079876e-04 8.808698e-06 -9.270864e-05 -1.953842e-04 -2.979942e-04 -3.993051e-04 -4.981078e-04 -5.932506e-04 -6.836703e-04 -7.684180e-04 -8.466810e-04 -9.177979e-04 -9.812673e-04 -1.036751e-03 -1.084072e-03 -1.123205e-03 -1.154261e-03 -1.177480e-03 -1.193204e-03 -1.201863e-03 -1.203954e-03 -1.200022e-03 -1.190643e-03 -1.176407e-03 -1.157905e-03 -1.135717e-03 -1.110400e-03 -1.082484e-03 -1.052466e-03 -1.020801e-03 -9.879062e-04 -9.541578e-04 -9.198899e-04 -8.853971e-04
7.429110e-04 7.703346e-04 7.974595e-04 8.240185e-04 8.497045e-04 8.741679e-04 8.970149e-04 9.178067e-04 9.360598e-04 9.512481e-04 9.628058e-04 9.701341e-04 9.726083e-04 9.695893e-04 9.604372e-04 9.445276e-04 9.212710e-04 8.901349e-04 8.506668e-04 8.025193e-04 7.454745e-04 6.794673e-04 6.046058e-04 5.211876e-04 4.297098e-04 3.308724e-04 2.255734e-04 1.148952e-04 8.220354e-08 -1.174889e-04 -2.363466e-04 -3.549664e-04 -4.718160e-04 -5.854009e-04 -6.943086e-04 -7.972477e-04 -8.930822e-04 -9.808576e-04 -1.059819e-03 -1.129419e-03 -1.189321e-03 -1.239390e-03 -1.279679e-03 -1.310412e-03 -1.331961e-03 -1.344816e-03 -1.349568e-03 -1.346877e-03 -1.337450e-03 -1.322016e-03 -1.301313e-03 -1.276066e-03 -1.246973e-03 -1.214698e-03 -1.179863e-03 -1.143039e-03 -1.104744e-03 -1.065447e-03 -1.025560e-03 -9.854450e-04 -9.454163e-04
7.950141e-04 8.268259e-04 8.585581e-04 8.899227e-04 9.205830e-04 9.501497e-04 9.781777e-04 1.004164e-03 1.027548e-03 1.047708e-03 1.063971e-03 1.075612e-03 1.081866e-03 1.081941e-03 1.075030e-03 1.060337e-03 1.037097e-03 1.004605e-03 9.622489e-04 9.095400e-04 8.461480e-04 7.719332e-04 6.869748e-04 5.915951e-04 4.863746e-04 3.721583e-04 2.500502e-04 1.213961e-04 -1.224629e-05 -1.491475e-04 -2.874573e-04 -4.252612e-04 -5.606423e-04 -6.917422e-04 -8.168192e-04 -9.343008e-04 -1.042826e-03 -1.141279e-03 -1.228806e-03 -1.304828e-03 -1.369033e-03 -1.421366e-03 -1.462005e-03 -1.491333e-03 -1.509907e-03 -1.518422e-03 -1.517678e-03 -1.508543e-03 -1.491929e-03 -1.468758e-03 -1.439942e-03 -1.406366e-03 -1.368866e-03 -1.328226e-03 -1.285167e-03 -1.240341e-03 -1.194331e-03 -1.147653e-03 -1.100755e-03 -1.054022e-03 -1.007779e-03
8.499776e-04 8.867718e-04 9.237783e-04 9.606919e-04 9.971482e-04 1.032718e-03 1.066904e-03 1.099133e-03 1.128755e-03 1.155046e-03 1.177201e-03 1.194347e-03 1.205547e-03 1.209818e-03 1.206145e-03 1.193509e-03 1.170915e-03 1.137431e-03 1.092227e-03 1.034619e-03 9.641177e-04 8.804699e-04 7.837028e-04 6.741575e-04 5.525122e-04 4.197934e-04 2.773700e-04 1.269308e-04 -2.955523e-05 -1.898948e-04 -3.517397e-04 -5.126657e-04 -6.702560e-04 -8.221850e-04 -9.662959e-04 -1.100669e-03 -1.223677e-03 -1.334022e-03 -1.430760e-03 -1.513300e-03 -1.581401e-03 -1.635142e-03 -1.674892e-03 -1.701262e-03 -1.715067e-03 -1.717275e-03 -1.708958e-03 -1.691256e-03 -1.665332e-03 -1.632345e-03 -1.593415e-03 -1.549612e-03 -1.501932e-03 -1.451287e-03 -1.398506e-03 -1.344324e-03 -1.289386e-03 -1.234252e-03 -1.179396e-03 -1.125219e-03 -1.072050e-03
9.076478e-04 9.500747e-04 9.930957e-04 1.036394e-03 1.079581e-03 1.122193e-03 1.163677e-03 1.203388e-03 1.240582e-03 1.274410e-03 1.303922e-03 1.328066e-03 1.345699e-03 1.355598e-03 1.356485e-03 1.347055e-03 1.326012e-03 1.292121e-03 1.244255e-03 1.181460e-03 1.103016e-03 1.008503e-03 8.978584e-04 7.714304e-04 6.300113e-04 4.748565e-04 3.076797e-04 1.306227e-04 -5.379879e-05 -2.427737e-04 -4.332922e-04 -6.222557e-04 -8.065934e-04 -9.833764e-04 -1.149923e-03 -1.303888e-03 -1.443331e-03 -1.566763e-03 -1.673165e-03 -1.761987e-03 -1.833123e-03 -1.886873e-03 -1.923887e-03 -1.945105e-03 -1.951694e-03 -1.944984e-03 -1.926406e-03 -1.897437e-03 -1.859555e-03 -1.814200e-03 -1.762742e-03 -1.706459e-03 -1.646522e-03 -1.583984e-03 -1.519782e-03 -1.454729e-03 -1.389528e-03 -1.324771e-03 -1.260949e-03 -1.198463e-03 -1.137632e-03
9.677617e-04 1.016524e-03 1.066372e-03 1.116984e-03 1.167960e-03 1.218803e-03 1.268911e-03 1.317565e-03 1.363920e-03 1.406994e-03 1.445668e-03 1.478680e-03 1.504635e-03 1.522019e-03 1.529220e-03 1.524564e-03 1.506361e-03 1.472966e-03 1.422849e-03 1.354675e-03 1.267397e-03 1.160343e-03 1.033306e-03 8.866149e-04 7.211951e-04 5.385948e-04 3.409826e-04 1.311076e-04 -8.777736e-05 -3.120263e-04 -5.377383e-04 -7.609141e-04 -9.776190e-04 -1.184142e-03 -1.377138e-03 -1.553743e-03 -1.711663e-03 -1.849222e-03 -1.965374e-03 -2.059690e-03 -2.132312e-03 -2.183881e-03 -2.215466e-03 -2.228468e-03 -2.224534e-03 -2.205471e-03 -2.173168e-03 -2.129528e-03 -2.076410e-03 -2.015587e-03 -1.948714e-03 -1.877303e-03 -1.802709e-03 -1.726130e-03 -1.648604e-03 -1.571016e-03 -1.494109e-03 -1.418490e-03 -1.344649e-03 -1.272970e-03 -1.203742e-03
1.029919e-03 1.085766e-03 1.143318e-03 1.202268e-03 1.262211e-03 1.322635e-03 1.382894e-03 1.442202e-03 1.499611e-03 1.553997e-03 1.604048e-03 1.648263e-03 1.684946e-03 1.712224e-03 1.728063e-03 1.730317e-03 1.716773e-03 1.685237e-03 1.633621e-03 1.560058e-03 1.463026e-03 1.341475e-03 1.194963e-03 1.023760e-03 8.289407e-04 6.124331e-04 3.770160e-04 1.262662e-04 -1.355516e-04 -4.036457e-04 -6.728982e-04 -9.380912e-04 -1.194140e-03 -1.436316e-03 -1.660438e-03 -1.863025e-03 -2.041400e-03 -2.193738e-03 -2.319064e-03 -2.417209e-03 -2.488729e-03 -2.534799e-03 -2.557089e-03 -2.557643e-03 -2.538755e-03 -2.502854e-03 -2.452408e-03 -2.389842e-03 -2.317471e-03 -2.237453e-03 -2.151758e-03 -2.062146e-03 -1.970162e-03 -1.877139e-03 -1.784202e-03 -1.692284e-03 -1.602145e-03 -1.514382e-03 -1.429458e-03 -1.347713e-03 -1.269383e-03
1.093552e-03 1.157261e-03 1.223450e-03 1.291843e-03 1.362056e-03 1.433573e-03 1.505728e-03 1.577678e-03 1.648377e-03 1.716555e-03 1.780698e-03 1.839027e-03 1.889494e-03 1.929787e-03 1.957349e-03 1.969418e-03 1.963097e-03 1.935447e-03 1.883609e-03 1.804957e-03 1.697278e-03 1.558956e-03 1.389166e-03 1.188047e-03 9.568407e-04 6.979696e-04 4.150475e-04 1.128022e-04 -2.030860e-04 -5.262237e-04 -8.498039e-04 -1.166940e-03 -1.471002e-03 -1.755935e-03 -2.016516e-03 -2.248553e-03 -2.448997e-03 -2.615979e-03 -2.748774e-03 -2.847705e-03 -2.914004e-03 -2.949645e-03 -2.957166e-03 -2.939492e-03 -2.899773e-03 -2.841237e-03 -2.767071e-03 -2.680325e-03 -2.583843e-03 -2.480210e-03 -2.371732e-03 -2.260420e-03 -2.147995e-03 -2.035897e-03 -1.925311e-03 -1.817182e-03 -1.712247e-03 -1.611062e-03 -1.514021e-03 -1.421390e-03 -1.333318e-03
1.157886e-03 1.230245e-03 1.306037e-03 1.385046e-03 1.466935e-03 1.551218e-03 1.637234e-03 1.724107e-03 1.810715e-03 1.895652e-03 1.977189e-03 2.053248e-03 2.121374e-03 2.178729e-03 2.222101e-03 2.247946e-03 2.252458e-03 2.231687e-03 2.181699e-03 2.098786e-03 1.979713e-03 1.822000e-03 1.624210e-03 1.386219e-03 1.109439e-03 7.969544e-04 4.535424e-04 8.556784e-05 -2.992638e-04 -6.922732e-04 -1.084265e-03 -1.466033e-03 -1.828859e-03 -2.164960e-03 -2.467845e-03 -2.732552e-03 -2.955761e-03 -3.135790e-03 -3.272484e-03 -3.367033e-03 -3.421740e-03 -3.439765e-03 -3.424867e-03 -3.381161e-03 -3.312910e-03 -3.224343e-03 -3.119514e-03 -3.002200e-03 -2.875828e-03 -2.743440e-03 -2.607673e-03 -2.470766e-03 -2.334575e-03 -2.200606e-03 -2.070048e-03 -1.943806e-03 -1.822545e-03 -1.706722e-03 -1.596622e-03 -1.492390e-03 -1.394054e-03
1.221906e-03 1.303678e-03 1.390040e-03 1.480871e-03 1.575922e-03 1.674781e-03 1.776832e-03 1.881213e-03 1.986762e-03 2.091964e-03 2.194890e-03 2.293148e-03 2.383831e-03 2.463483e-03 2.528091e-03 2.573112e-03 2.593545e-03 2.584063e-03 2.539226e-03 2.453758e-03 2.322905e-03 2.142851e-03 1.911163e-03 1.627225e-03 1.292595e-03 9.112464e-04 4.896226e-04 3.647559e-05 -4.375166e-04 -9.203322e-04 -1.399328e-03 -1.862023e-03 -2.296852e-03 -2.693808e-03 -3.044915e-03 -3.344500e-03 -3.589259e-03 -3.778151e-03 -3.912150e-03 -3.993913e-03 -4.027400e-03 -4.017494e-03 -3.969637e-03 -3.889517e-03 -3.782800e-03 -3.654925e-03 -3.510952e-03 -3.355457e-03 -3.192483e-03 -3.025509e-03 -2.857465e-03 -2.690757e-03 -2.527309e-03 -2.368612e-03 -2.215781e-03 -2.069607e-03 -1.930610e-03 -1.799086e-03 -1.675150e-03 -1.558777e-03 -1.449828e-03
1.284312e-03 1.376192e-03 1.474045e-03 1.577890e-03 1.687621e-03 1.802957e-03 1.923396e-03 2.048155e-03 2.176097e-03 2.305657e-03 2.434750e-03 2.560689e-03 2.680087e-03 2.788793e-03 2.881833e-03 2.953408e-03 2.996949e-03 3.005261e-03 2.970775e-03 2.885931e-03 2.743681e-03 2.538115e-03 2.265159e-03 1.923277e-03 1.514083e-03 1.042762e-03 5.181973e-04 -4.727534e-05 -6.384842e-04 -1.238381e-03 -1.829220e-03 -2.393817e-03 -2.916707e-03 -3.385078e-03 -3.789372e-03 -4.123538e-03 -4.384950e-03 -4.574074e-03 -4.693965e-03 -4.749680e-03 -4.747685e-03 -4.695300e-03 -4.600224e-03 -4.470137e-03 -4.312405e-03 -4.133856e-03 -3.940641e-03 -3.738158e-03 -3.531021e-03 -3.323078e-03 -3.117450e-03 -2.916602e-03 -2.722405e-03 -2.536226e-03 -2.358997e-03 -2.191293e-03 -2.033399e-03 -1.885369e-03 -1.747082e-03 -1.618280e-03 -1.498611e-03
1.343489e-03 1.446046e-03 1.556195e-03 1.674160e-03 1.800043e-03 1.933778e-03 2.075065e-03 2.223299e-03 2.377477e-03 2.536086e-03 2.696981e-03 2.857247e-03 3.013048e-03 3.159487e-03 3.290482e-03 3.398695e-03 3.475527e-03 3.511251e-03 3.495295e-03 3.416736e-03 3.265016e-03 3.030886e-03 2.707510e-03 2.291641e-03 1.784688e-03 1.193489e-03 5.305900e-04 -1.861161e-04 -9.344344e-04 -1.689505e-03 -2.425813e-03 -3.119281e-03 -3.749102e-03 -4.299085e-03 -4.758366e-03 -5.121467e-03 -5.387845e-03 -5.561075e-03 -5.647879e-03 -5.657129e-03 -5.598960e-03 -5.484018e-03 -5.322875e-03 -5.125603e-03 -4.901478e-03 -4.658793e-03 -4.404764e-03 -4.145510e-03 -3.886081e-03 -3.630526e-03 -3.381986e-03 -3.142805e-03 -2.914637e-03 -2.698563e-03 -2.495194e-03 -2.304765e-03 -2.127216e-03 -1.962269e-03 -1.809485e-03 -1.668313e-03 -1.538131e-03
1.397472e-03 1.511070e-03 1.634123e-03 1.767127e-03 1.910482e-03 2.064437e-03 2.229020e-03 2.403945e-03 2.588498e-03 2.781393e-03 2.980595e-03 3.183119e-03 3.384796e-03 3.580023e-03 3.761525e-03 3.920144e-03 4.044722e-03 4.122143e-03 4.137602e-03 4.075205e-03 3.918960e-03 3.654187e-03 3.269308e-03 2.757839e-03 2.120317e-03 1.365789e-03 5.124391e-04 -4.129355e-04 -1.376741e-03 -2.341508e-03 -3.269485e-03 -4.126253e-03 -4.883733e-03 -5.522100e-03 -6.030417e-03 -6.406100e-03 -6.653540e-03 -6.782322e-03 -6.805402e-03 -6.737514e-03 -6.593921e-03 -6.389521e-03 -6.138265e-03 -5.852800e-03 -5.544285e-03 -5.222315e-03 -4.894938e-03 -4.568719e-03 -4.248857e-03 -3.939317e-03 -3.642993e-03 -3.361860e-03 -3.097133e-03 -2.849413e-03 -2.618817e-03 -2.405094e-03 -2.207721e-03 -2.025986e-03 -1.859053e-03 -1.706012e-03 -1.565919e-03
1.443937e-03 1.568646e-03 1.704899e-03 1.853546e-03 2.015387e-03 2.191114e-03 2.381241e-03 2.585992e-03 2.805170e-03 3.037972e-03 3.282761e-03 3.536776e-03 3.795788e-03 4.053698e-03 4.302100e-03 4.529848e-03 4.722691e-03 4.863090e-03 4.930344e-03 4.901216e-03 4.751222e-03 4.456713e-03 3.997761e-03 3.361627e-03 2.546343e-03 1.563690e-03 4.406916e-04 -7.810809e-04 -2.048752e-03 -3.303604e-03 -4.487803e-03 -5.551002e-03 -6.455426e-03 -7.178508e-03 -7.712850e-03 -8.064000e-03 -8.246969e-03 -8.282483e-03 -8.193734e-03 -8.003991e-03 -7.735129e-03 -7.406864e-03 -7.036481e-03 -6.638818e-03 -6.226374e-03 -5.809465e-03 -5.396403e-03 -4.993682e-03 -4.606182e-03 -4.237380e-03 -3.889559e-03 -3.564018e-03 -3.261267e-03 -2.981204e-03 -2.723268e-03 -2.486568e-03 -2.269995e-03 -2.072307e-03 -1.892191e-03 -1.728320e-03 -1.579386e-03
1.480206e-03 1.615692e-03 1.764996e-03 1.929410e-03 2.110247e-03 2.308796e-03 2.526244e-03 2.763573e-03 3.021407e-03 3.299798e-03 3.597943e-03 3.913804e-03 4.243619e-03 4.581295e-03 4.917684e-03 5.239777e-03 5.529890e-03 5.764989e-03 5.916378e-03 5.950092e-03 5.828355e-03 5.512514e-03 4.967631e-03 4.168582e-03 3.106911e-03 1.797031e-03 2.799190e-04 -1.377508e-03 -3.088290e-03 -4.756096e-03 -6.288543e-03 -7.609929e-03 -8.670226e-03 -9.448376e-03 -9.949791e-03 -1.019971e-02 -1.023492e-02 -1.009611e-02 -9.822438e-03 -9.448489e-03 -9.003278e-03 -8.510504e-03 -7.989317e-03 -7.455146e-03 -6.920369e-03 -6.394797e-03 -5.886021e-03 -5.399685e-03 -4.939735e-03 -4.508656e-03 -4.107720e-03 -3.737219e-03 -3.396688e-03 -3.085099e-03 -2.801037e-03 -2.542835e-03 -2.308688e-03 -2.096738e-03 -1.905140e-03 -1.732104e-03 -1.575926e-03
1.503286e-03 1.648694e-03 1.810306e-03 1.989939e-03 2.189538e-03 2.411147e-03 2.656853e-03 2.928686e-03 3.228478e-03 3.557633e-03 3.916814e-03 4.305471e-03 4.721209e-03 5.158932e-03 5.609730e-03 6.059513e-03 6.487436e-03 6.864278e-03 7.151095e-03 7.298697e-03 7.248740e-03 6.937363e-03 6.302220e-03 5.293139e-03 3.885469e-03 2.093504e-03 -2.015237e-05 -2.343797e-03 -4.727408e-03 -7.004414e-03 -9.019583e-03 -1.065520e-02 -1.184783e-02 -1.259129e-02 -1.292656e-02 -1.292382e-02 -1.266321e-02 -1.221983e-02 -1.165555e-02 -1.101690e-02 -1.033699e-02 -9.638949e-03 -8.939253e-03 -8.250146e-03 -7.581062e-03 -6.939335e-03 -6.330507e-03 -5.758478e-03 -5.225636e-03 -4.733033e-03 -4.280590e-03 -3.867329e-03 -3.491599e-03 -3.151286e-03 -2.843991e-03 -2.567172e-03 -2.318258e-03 -2.094729e-03 -1.894172e-03 -1.714317e-03 -1.553059e-03
1.509954e-03 1.663791e-03 1.836213e-03 2.029631e-03 2.246729e-03 2.490468e-03 2.764055e-03 3.070897e-03 3.414482e-03 3.798190e-03 4.224982e-03 4.696894e-03 5.214301e-03 5.774811e-03 6.371714e-03 6.991871e-03 7.612982e-03 8.200316e-03 8.703243e-03 9.052333e-03 9.158445e-03 8.915864e-03 8.211942e-03 6.945105e-03 5.050904e-03 2.531789e-03 -5.184505e-04 -3.907346e-03 -7.362846e-03 -1.057948e-02 -1.328026e-02 -1.527429e-02 -1.648999e-02 -1.697360e-02 -1.685701e-02 -1.631039e-02 -1.549814e-02 -1.455087e-02 -1.355635e-02 -1.256477e-02 -1.160027e-02 -1.067259e-02 -9.785370e-03 -8.940716e-03 -8.140888e-03 -7.388431e-03 -6.685691e-03 -6.034306e-03 -5.434889e-03 -4.886956e-03 -4.389020e-03 -3.938782e-03 -3.533362e-03 -3.169517e-03 -2.843836e-03 -2.552884e-03 -2.293317e-03 -2.061954e-03 -1.855828e-03 -1.672206e-03 -1.508600e-03
1.496889e-03 1.656920e-03 1.837749e-03 2.042422e-03 2.274438e-03 2.537794e-03 2.837025e-03 3.177219e-03 3.563996e-03 4.003405e-03 4.501710e-03 5.064967e-03 5.698293e-03 6.404660e-03 7.182975e-03 8.025176e-03 8.912018e-03 9.807301e-03 1.065058e-02 1.134913e-02 1.177110e-02 1.174391e-02 1.106383e-02 9.523590e-03 6.961898e-03 3.330075e-03 -1.243033e-03 -6.418772e-03 -1.167889e-02 -1.642666e-02 -2.013253e-02 -2.246992e-02 -2.338616e-02 -2.308189e-02 -2.191485e-02 -2.027567e-02 -1.848740e-02 -1.675793e-02 -1.518381e-02 -1.378330e-02 -1.253482e-02 -1.140595e-02 -1.036901e-02 -9.406111e-03 -8.508275e-03 -7.672369e-03 -6.898085e-03 -6.185767e-03 -5.535185e-03 -4.945056e-03 -4.413005e-03 -3.935768e-03 -3.509474e-03 -3.129915e-03 -2.792785e-03 -2.493850e-03 -2.229071e-03 -1.994678e-03 -1.787211e-03 -1.603537e-03 -1.440843e-03
1.460864e-03 1.624040e-03 1.809855e-03 2.021980e-03 2.264740e-03 2.543226e-03 2.863421e-03 3.232328e-03 3.658095e-03 4.150101e-03 4.718970e-03 5.376412e-03 6.134775e-03 7.006057e-03 8.000019e-03 9.120857e-03 1.036162e-02 1.169542e-02 1.306243e-02 1.435228e-02 1.538366e-02 1.588655e-02 1.549969e-02 1.380246e-02 1.040152e-02 5.077313e-03 -2.042409e-03 -1.036228e-02 -1.884951e-02 -2.626079e-02 -3.150428e-02 -3.398258e-02 -3.375635e-02 -3.145637e-02 -2.800021e-02 -2.426217e-02 -2.084577e-02 -1.802400e-02 -1.581206e-02 -1.408925e-02 -1.270226e-02 -1.152313e-02 -1.046756e-02 -9.490419e-03 -8.573321e-03 -7.712542e-03 -6.910433e-03 -6.170403e-03 -5.494564e-03 -4.883006e-03 -4.333902e-03 -3.843955e-03 -3.408914e-03 -3.024024e-03 -2.684378e-03 -2.385164e-03 -2.121823e-03 -1.890142e-03 -1.686293e-03 -1.506845e-03 -1.348752e-03
1.398992e-03 1.561435e-03 1.747746e-03 1.962142e-03 2.209698e-03 2.496539e-03 2.830076e-03 3.219281e-03 3.675026e-03 4.210458e-03 4.841406e-03 5.586762e-03 6.468715e-03 7.512606e-03 8.745972e-03 1.019596e-02 1.188374e-02 1.381375e-02 1.595450e-02 1.820727e-02 2.035990e-02 2.202918e-02 2.260985e-02 2.127383e-02 1.708930e-02 9.322087e-03 -2.106025e-03 -1.619698e-02 -3.081607e-02 -4.320667e-02 -5.093983e-02 -5.283305e-02 -4.935579e-02 -4.232052e-02 -3.404521e-02 -2.645562e-02 -2.058019e-02 -1.657203e-02 -1.405474e-02 -1.249678e-02 -1.144465e-02 -1.060188e-02 -9.814604e-03 -9.025012e-03 -8.227128e-03 -7.436396e-03 -6.672682e-03 -5.952577e-03 -5.287036e-03 -4.681563e-03 -4.137360e-03 -3.652636e-03 -3.223733e-03 -2.845997e-03 -2.514373e-03 -2.223809e-03 -1.969488e-03 -1.746962e-03 -1.552211e-03 -1.381655e-03 -1.232137e-03
1.309015e-03 1.466081e-03 1.647383e-03 1.857515e-03 2.102113e-03 2.388121e-03 2.724144e-03 3.120901e-03 3.591812e-03 4.153752e-03 4.828009e-03 5.641486e-03 6.628127e-03 7.830488e-03 9.301151e-03 1.110322e-02 1.330829e-02 1.598841e-02 1.919598e-02 2.292074e-02 2.700877e-02 3.102910e-02 3.409245e-02 3.468806e-02 3.071729e-02 2.000544e-02 1.456668e-03 -2.352677e-02 -5.043072e-02 -7.279317e-02 -8.483618e-02 -8.402847e-02 -7.212677e-02 -5.418613e-02 -3.607184e-02 -2.193680e-02 -1.315154e-02 -8.915188e-03 -7.563454e-03 -7.571683e-03 -7.946739e-03 -8.200467e-03 -8.176138e-03 -7.885023e-03 -7.400316e-03 -6.802636e-03 -6.158227e-03 -5.513970e-03 -4.899463e-03 -4.331169e-03 -3.816475e-03 -3.356937e-03 -2.950628e-03 -2.593735e-03 -2.281585e-03 -2.009275e-03 -1.772043e-03 -1.565460e-03 -1.385521e-03 -1.228669e-03 -1.091786e-03
1.189613e-03 1.336056e-03 1.506006e-03 1.704182e-03 1.936457e-03 2.210199e-03 2.534720e-03 2.921891e-03 3.386980e-03 3.949801e-03 4.636301e-03 5.480762e-03 6.528834e-03 7.841664e-03 9.501374e-03 1.161789e-02 1.433632e-02 1.784220e-02 2.235671e-02 2.810437e-02 3.521652e-02 4.350788e-02 5.204883e-02 5.852436e-02 5.866362e-02 4.661164e-02 1.747431e-02 -2.805028e-02 -8.038147e-02 -1.236504e-01 -1.435222e-01 -1.343413e-01 -1.016059e-01 -5.918306e-02 -2.202013e-02 1.338228e-03 1.074127e-02 1.088603e-02 6.912349e-03 2.234618e-03 -1.572250e-03 -4.107694e-03 -5.511977e-03 -6.085778e-03 -6.118287e-03 -5.832410e-03 -5.381618e-03 -4.863869e-03 -4.337757e-03 -3.835847e-03 -3.374331e-03 -2.959538e-03 -2.592132e-03 -2.269728e-03 -1.988474e-03 -1.743979e-03 -1.531833e-03 -1.347878e-03 -1.188340e-03 -1.049869e-03 -9.295335e-04
1.040703e-03 1.170937e-03 1.322682e-03 1.500443e-03 1.709896e-03 1.958257e-03 2.254794e-03 2.611540e-03 3.044309e-03 3.574144e-03 4.229433e-03 5.049029e-03 6.086890e-03 7.419056e-03 9.154166e-03 1.144920e-02 1.453257e-02 1.873622e-02 2.453509e-02 3.258013e-02 4.367772e-02 5.858884e-02 7.737540e-02 9.787248e-02 1.131306e-01 1.093844e-01 6.960276e-02 -1.249679e-02 -1.169719e-01 -2.032837e-01 -2.363595e-01 -2.046236e-01 -1.230523e-01 -2.839786e-02 4.096046e-02 6.964069e-02 6.699936e-02 5.029670e-02 3.193526e-02 1.728610e-02 7.312514e-03 1.202687e-03 -2.205300e-03 -3.892119e-03 -4.551390e-03 -4.631944e-03 -4.408848e-03 -4.044050e-03 -3.629390e-03 -3.214630e-03 -2.824903e-03 -2.471278e-03 -2.157037e-03 -1.881343e-03 -1.641351e-03 -1.433398e-03 -1.253647e-03 -1.098423e-03 -9.643719e-04 -8.485155e-04 -7.482551e-04
8.636647e-04 9.721290e-04 1.098766e-03 1.247483e-03 1.423237e-03 1.632398e-03 1.883234e-03 2.186628e-03 2.557105e-03 3.014364e-03 3.585584e-03 4.308972e-03 5.239334e-03 6.456976e-03 8.082175e-03 1.029904e-02 1.339517e-02 1.782752e-02 2.432945e-02 3.407549e-02 4.889966e-02 7.146580e-02 1.049663e-01 1.511297e-01 2.041539e-01 2.394224e-01 2.082974e-01 7.195811e-02 -1.295544e-01 -2.878412e-01 -3.299425e-01 -2.447184e-01 -6.140816e-02 1.304277e-01 2.313256e-01 2.275204e-01 1.714931e-01 1.105990e-01 6.419166e-02 3.404341e-02 1.612986e-02 6.104844e-03 7.850406e-04 -1.853421e-03 -3.013066e-03 -3.382803e-03 -3.348513e-03 -3.122528e-03 -2.819389e-03 -2.499103e-03 -2.191563e-03 -1.910234e-03 -1.659801e-03 -1.440425e-03 -1.250082e-03 -1.085841e-03 -9.445365e-04 -8.231109e-04 -7.187693e-04 -6.290370e-04 -5.517644e-04
6.614708e-04 7.430558e-04 8.381951e-04 9.498055e-04 1.081602e-03 1.238371e-03 1.426363e-03 1.653859e-03 1.932010e-03 2.276112e-03 2.707578e-03 3.257061e-03 3.969550e-03 4.912857e-03 6.192168e-03 7.975574e-03 1.053997e-02 1.435511e-02 2.023961e-02 2.965021e-02 4.520472e-02 7.155273e-02 1.165015e-01 1.911413e-01 3.036539e-01 4.333719e-01 4.807020e-01 2.982439e-01 -3.194109e-02 -2.012881e-01 -1.615439e-01 2.078333e-02 3.616291e-01 6.650531e-01 6.767387e-01 4.933000e-01 3.002459e-01 1.656871e-01 8.612638e-02 4.258830e-02 1.970295e-02 7.985602e-03 2.147158e-03 -6.386836e-04 -1.856507e-03 -2.281514e-03 -2.317566e-03 -2.174279e-03 -1.959387e-03 -1.727051e-03 -1.503268e-03 -1.299332e-03 -1.118983e-03 -9.622180e-04 -8.273118e-04 -7.118710e-04 -6.133724e-04 -5.294208e-04 -4.578592e-04 -3.968024e-04 -3.446314e-04
4.386639e-04 4.891555e-04 5.475105e-04 6.153238e-04 6.946071e-04 7.879291e-04 8.986161e-04 1.031045e-03 1.191085e-03 1.386767e-03 1.629358e-03 1.935098e-03 2.328111e-03 2.845465e-03 3.546197e-03 4.527985e-03 5.958906e-03 8.139772e-03 1.162990e-02 1.750644e-02 2.790541e-02 4.713973e-02 8.388165e-02 1.546754e-01 2.857704e-01 4.937636e-01 6.817626e-01 5.001739e-01 1.682103e-01 5.424048e-01 9.710071e-01 1.215484e+00 1.675629e+00 1.833396e+00 1.219258e+00 6.395247e-01 3.107674e-01 1.466238e-01 6.787934e-02 3.059238e-02 1.301617e-02 4.787009e-03 1.008563e-03 -6.428442e-04 -1.280525e-03 -1.442997e-03 -1.392248e-03 -1.255485e-03 -1.093534e-03 -9.343474e-04 -7.896327e-04 -6.631895e-04 -5.551041e-04 -4.638569e-04 -3.873641e-04 -3.234773e-04 -2.702045e-04 -2.257937e-04 -1.887475e-04 -1.578082e-04 -1.319294e-04
2.011675e-04 2.176468e-04 2.355740e-04 2.550010e-04 2.759340e-04 2.983030e-04 3.219167e-04 3.463947e-04 3.710662e-04 3.948197e-04 4.158814e-04 4.314932e-04 4.374546e-04 4.274991e-04 3.925180e-04 3.197953e-04 1.928679e-04 -6.125250e-06 -2.864010e-04 -6.168016e-04 -8.357459e-04 -4.101733e-04 2.174976e-03 1.081993e-02 3.428386e-02 8.630345e-02 1.568942e-01 6.837779e-02 -9.333557e-02 3.109999e-01 5.308562e-01 5.817684e-01 7.966993e-01 7.855153e-01 3.480960e-01 1.286893e-01 4.412153e-02 1.233189e-02 1.035474e-03 -2.426216e-03 -3.028618e-03 -2.693397e-03 -2.136502e-03 -1.604636e-03 -1.166643e-03 -8.277260e-04 -5.733921e-04 -3.856558e-04 -2.484193e-04 -1.487656e-04 -7.682332e-05 -2.522597e-05 1.145962e-05 3.722019e-05 5.497675e-05 6.687083e-05 7.447514e-05 7.894732e-05 8.114150e-05 8.168927e-05 8.105851e-05
-4.406482e-05 -6.292695e-05 -8.703379e-05 -1.179437e-04 -1.577429e-04 -2.092515e-04 -2.763230e-04 -3.642832e-04 -4.805876e-04 -6.358171e-04 -8.452172e-04 -1.131120e-03 -1.526837e-03 -2.083050e-03 -2.878556e-03 -4.038789e-03 -5.768554e-03 -8.411430e-03 -1.256020e-02 -1.926641e-02 -3.044211e-02 -4.962103e-02 -8.330631e-02 -1.428293e-01 -2.442224e-01 -3.925073e-01 -5.071215e-01 -3.357669e-01 -2.506626e-01 -8.830631e-01 -1.352100e+00 -1.594066e+00 -1.960844e+00 -1.820150e+00 -1.057903e+00 -5.332791e-01 -2.672526e-01 -1.359849e-01 -7.042266e-02 -3.704014e-02 -1.966533e-02 -1.042166e-02 -5.406951e-03 -2.645245e-03 -1.111376e-03 -2.602138e-04 2.050434e-04 4.495438e-04 5.669641e-04 6.113148e-04 6.141424e-04 5.940417e-04 5.620217e-04 5.245916e-04 4.855629e-04 4.471192e-04 4.104583e-04 3.761822e-04 3.445352e-04 3.155510e-04 2.891431e-04
-2.895265e-04 -3.433291e-04 -4.088561e-04 -4.891763e-04 -5.883192e-04 -7.116298e-04 -8.662782e-04 -1.062001e-03 -1.312193e-03 -1.635550e-03 -2.058573e-03 -2.619465e-03 -3.374316e-03 -4.407110e-03 -5.846281e-03 -7.892665e-03 -1.086765e-02 -1.529757e-02 -2.206321e-02 -3.266433e-02 -4.967483e-02 -7.745815e-02 -1.230016e-01 -1.956799e-01 -3.011936e-01 -4.177357e-01 -4.510167e-01 -2.748583e-01 -1.836940e-02 2.364836e-02 -1.061399e-01 -3.244245e-01 -6.511236e-01 -8.641344e-01 -7.624150e-01 -5.207935e-01 -3.125183e-01 -1.762383e-01 -9.646196e-02 -5.190661e-02 -2.745678e-02 -1.409877e-02 -6.801944e-03 -2.823946e-03 -6.752846e-04 4.578172e-04 1.024450e-03 1.275217e-03 1.351388e-03 1.333225e-03 1.266511e-03 1.177318e-03 1.080355e-03 9.837307e-04 8.917184e-04 8.063663e-04 7.284459e-04 6.580127e-04 5.947376e-04 5.381018e-04 4.875104e-04
-5.277030e-04 -6.143511e-04 -7.185263e-04 -8.445570e-04 -9.980571e-04 -1.186378e-03 -1.419246e-03 -1.709674e-03 -2.075282e-03 -2.540234e-03 -3.138128e-03 -3.916368e-03 -4.942874e-03 -6.316552e-03 -8.183816e-03 -1.076497e-02 -1.439653e-02 -1.959877e-02 -2.718108e-02 -3.839582e-02 -5.512695e-02 -7.999852e-02 -1.159736e-01 -1.642560e-01 -2.182149e-01 -2.523598e-01 -2.181378e-01 -8.091687e-02 1.094164e-01 2.417010e-01 2.551894e-01 1.495633e-01 -4.073130e-02 -2.207498e-01 -2.961605e-01 -2.684949e-01 -1.975978e-01 -1.287932e-01 -7.788509e-02 -4.466727e-02 -2.437457e-02 -1.243485e-02 -5.584613e-03 -1.744472e-03 3.432956e-04 1.421106e-03 1.922504e-03 2.099593e-03 2.098679e-03 2.004454e-03 1.865657e-03 1.710000e-03 1.552875e-03 1.402472e-03 1.262783e-03 1.135389e-03 1.020519e-03 9.176685e-04 8.259715e-04 7.444143e-04 6.719558e-04
-7.516131e-04 -8.675229e-04 -1.005709e-03 -1.171400e-03 -1.371291e-03 -1.614029e-03 -1.910882e-03 -2.276671e-03 -2.731082e-03 -3.300537e-03 -4.020876e-03 -4.941250e-03 -6.129797e-03 -7.681961e-03 -9.732658e-03 -1.247388e-02 -1.617942e-02 -2.123754e-02 -2.818770e-02 -3.774398e-02 -5.075156e-02 -6.794171e-02 -8.920589e-02 -1.119732e-01 -1.285778e-01 -1.243196e-01 -8.160724e-02 4.796654e-03 1.118718e-01 1.963477e-01 2.233198e-01 1.834668e-01 9.473071e-02 -3.093767e-03 -7.064298e-02 -9.456374e-02 -8.683048e-02 -6.591777e-02 -4.429430e-02 -2.707727e-02 -1.503083e-02 -7.234853e-03 -2.464615e-03 3.091392e-04 1.824887e-03 2.573389e-03 2.867201e-03 2.900248e-03 2.790651e-03 2.609207e-03 2.397578e-03 2.179663e-03 1.968631e-03 1.771229e-03 1.590416e-03 1.426967e-03 1.280445e-03 1.149780e-03 1.033615e-03 9.305113e-04 8.390547e-04
-9.552763e-04 -1.095714e-03 -1.261881e-03 -1.459490e-03 -1.695756e-03 -1.979849e-03 -2.323508e-03 -2.741859e-03 -3.254538e-03 -3.887210e-03 -4.673639e-03 -5.658505e-03 -6.901195e-03 -8.480825e-03 -1.050263e-02 -1.310548e-02 -1.646933e-02 -2.081860e-02 -2.641230e-02 -3.349999e-02 -4.220343e-02 -5.225696e-02 -6.252958e-02 -7.033343e-02 -7.084728e-02 -5.761750e-02 -2.545892e-02 2.443519e-02 8.108016e-02 1.269332e-01 1.466586e-01 1.347211e-01 9.774057e-02 5.119666e-02 1.129635e-02 -1.309223e-02 -2.222649e-02 -2.137611e-02 -1.609795e-02 -1.004493e-02 -4.920071e-03 -1.191421e-03 1.250608e-03 2.700253e-03 3.455442e-03 3.755934e-03 3.775106e-03 3.630716e-03 3.399362e-03 3.129124e-03 2.849114e-03 2.576178e-03 2.319413e-03 2.083127e-03 1.868749e-03 1.676034e-03 1.503827e-03 1.350518e-03 1.214331e-03 1.093479e-03 9.862623e-04
-1.134053e-03 -1.293556e-03 -1.480843e-03 -1.701708e-03 -1.963350e-03 -2.274745e-03 -2.647148e-03 -3.094719e-03 -3.635339e-03 -4.291645e-03 -5.092334e-03 -6.073742e-03 -7.281682e-03 -8.773361e-03 -1.061893e-02 -1.290159e-02 -1.571414e-02 -1.914773e-02 -2.326523e-02 -2.804718e-02 -3.329362e-02 -3.846762e-02 -4.249032e-02 -4.356776e-02 -3.925629e-02 -2.708069e-02 -5.873722e-03 2.262133e-02 5.311636e-02 7.818720e-02 9.130631e-02 8.972139e-02 7.556861e-02 5.468803e-02 3.377087e-02 1.751724e-02 7.472085e-03 2.742967e-03 1.464006e-03 1.903539e-03 2.900103e-03 3.845095e-03 4.504080e-03 4.843802e-03 4.916324e-03 4.796230e-03 4.552564e-03 4.239524e-03 3.895813e-03 3.547186e-03 3.209668e-03 2.892430e-03 2.600042e-03 2.334112e-03 2.094423e-03 1.879703e-03 1.688124e-03 1.517622e-03 1.366092e-03 1.231498e-03 1.111944e-03
-1.284828e-03 -1.457639e-03 -1.658938e-03 -1.894247e-03 -2.170296e-03 -2.495307e-03 -2.879328e-03 -3.334657e-03 -3.876322e-03 -4.522635e-03 -5.295772e-03 -6.222302e-03 -7.333497e-03 -8.665073e-03 -1.025578e-02 -1.214374e-02 -1.435882e-02 -1.690819e-02 -1.975152e-02 -2.276124e-02 -2.566595e-02 -2.798198e-02 -2.895674e-02 -2.757664e-02 -2.272108e-02 -1.353186e-02 4.000615e-05 1.674645e-02 3.399295e-02 4.847090e-02 5.729302e-02 5.907732e-02 5.441599e-02 4.550027e-02 3.512505e-02 2.562603e-02 1.827882e-02 1.331442e-02 1.031440e-02 8.645926e-03 7.741128e-03 7.201930e-03 6.795863e-03 6.410296e-03 6.004568e-03 5.574596e-03 5.131185e-03 4.688549e-03 4.259189e-03 3.852208e-03 3.473268e-03 3.125184e-03 2.808665e-03 2.522986e-03 2.266528e-03 2.037169e-03 1.832562e-03 1.650318e-03 1.488124e-03 1.343801e-03 1.215349e-03
-1.406039e-03 -1.586512e-03 -1.794977e-03 -2.036418e-03 -2.316780e-03 -2.643140e-03 -3.023912e-03 -3.469050e-03 -3.990246e-03 -4.601091e-03 -5.317106e-03 -6.155551e-03 -7.134794e-03 -8.272928e-03 -9.585128e-03 -1.107903e-02 -1.274709e-02 -1.455478e-02 -1.642345e-02 -1.820782e-02 -1.967055e-02 -2.046175e-02 -2.011909e-02 -1.811238e-02 -1.395651e-02 -7.396389e-03 1.379187e-03 1.159495e-02 2.193612e-02 3.083809e-02 3.693961e-02 3.950838e-02 3.864269e-02 3.516104e-02 3.024901e-02 2.504581e-02 2.035414e-02 1.655560e-02 1.369179e-02 1.161193e-02 1.010398e-02 8.974160e-03 8.078271e-03 7.323001e-03 6.654596e-03 6.045411e-03 5.482942e-03 4.962377e-03 4.482150e-03 4.041589e-03 3.639852e-03 3.275566e-03 2.946820e-03 2.651292e-03 2.386413e-03 2.149515e-03 1.937950e-03 1.749170e-03 1.580780e-03 1.430571e-03 1.296527e-03
-1.497561e-03 -1.680490e-03 -1.889941e-03 -2.130193e-03 -2.406215e-03 -2.723759e-03 -3.089426e-03 -3.510714e-03 -3.996005e-03 -4.554443e-03 -5.195638e-03 -5.929081e-03 -6.763104e-03 -7.703156e-03 -8.749088e-03 -9.891057e-03 -1.110368e-02 -1.233814e-02 -1.351251e-02 -1.450130e-02 -1.512734e-02 -1.516108e-02 -1.433530e-02 -1.238355e-02 -9.106568e-03 -4.459243e-03 1.367156e-03 7.907429e-03 1.446714e-02 2.025887e-02 2.459438e-02 2.706232e-02 2.761994e-02 2.656466e-02 2.440593e-02 2.169870e-02 1.890609e-02 1.633073e-02 1.411460e-02 1.228061e-02 1.078481e-02 9.558921e-03 8.536250e-03 7.663121e-03 6.901024e-03 6.224333e-03 5.616728e-03 5.067907e-03 4.571116e-03 4.121522e-03 3.715251e-03 3.348870e-03 3.019150e-03 2.722982e-03 2.457363e-03 2.219418e-03 2.006431e-03 1.815862e-03 1.645368e-03 1.492803e-03 1.356222e-03
-1.560499e-03 -1.741347e-03 -1.946537e-03 -2.179559e-03 -2.444348e-03 -2.745298e-03 -3.087242e-03 -3.475382e-03 -3.915139e-03 -4.411890e-03 -4.970505e-03 -5.594639e-03 -6.285632e-03 -7.040921e-03 -7.851785e-03 -8.700328e-03 -9.555631e-03 -1.036925e-02 -1.107061e-02 -1.156343e-02 -1.172521e-02 -1.141263e-02 -1.047600e-02 -8.784966e-03 -6.264562e-03 -2.935139e-03 1.056378e-03 5.429734e-03 9.801112e-03 1.374938e-02 1.690268e-02 1.901768e-02 2.002403e-02 2.002005e-02 1.922527e-02 1.791122e-02 1.633638e-02 1.470352e-02 1.314467e-02 1.172772e-02 1.047391e-02 9.376876e-03 8.417747e-03 7.574823e-03 6.828455e-03 6.162767e-03 5.565641e-03 5.028007e-03 4.542981e-03 4.105147e-03 3.710024e-03 3.353725e-03 3.032755e-03 2.743899e-03 2.484170e-03 2.250789e-03 2.041179e-03 1.852958e-03 1.683942e-03 1.532138e-03 1.395735e-03
-1.596917e-03 -1.771954e-03 -1.968696e-03 -2.189844e-03 -2.438333e-03 -2.717292e-03 -3.029964e-03 -3.379576e-03 -3.769122e-03 -4.201039e-03 -4.676721e-03 -5.195838e-03 -5.755380e-03 -6.348390e-03 -6.962338e-03 -7.577143e-03 -8.162953e-03 -8.677942e-03 -9.066641e-03 -9.259608e-03 -9.175587e-03 -8.727427e-03 -7.832812e-03 -6.429905e-03 -4.496278e-03 -2.067135e-03 7.531039e-04 3.792172e-03 6.828068e-03 9.622545e-03 1.196247e-02 1.369754e-02 1.476314e-02 1.518227e-02 1.504787e-02 1.449321e-02 1.366073e-02 1.267769e-02 1.164266e-02 1.062249e-02 9.656218e-03 8.762245e-03 7.945716e-03 7.204427e-03 6.532868e-03 5.924587e-03 5.373354e-03 4.873600e-03 4.420475e-03 4.009750e-03 3.637686e-03 3.300911e-03 2.996343e-03 2.721133e-03 2.472631e-03 2.248375e-03 2.046080e-03 1.863636e-03 1.699098e-03 1.550688e-03 1.416783e-03
-1.609551e-03 -1.775893e-03 -1.961080e-03 -2.167080e-03 -2.395924e-03 -2.649638e-03 -2.930139e-03 -3.239067e-03 -3.577563e-03 -3.945943e-03 -4.343265e-03 -4.766755e-03 -5.211062e-03 -5.667356e-03 -6.122261e-03 -6.556696e-03 -6.944764e-03 -7.252907e-03 -7.439715e-03 -7.456847e-03 -7.251648e-03 -6.771936e-03 -5.973168e-03 -4.827573e-03 -3.333973e-03 -1.526097e-03 5.234182e-04 2.705842e-03 4.887144e-03 6.925618e-03 8.692761e-03 1.009233e-02 1.107273e-02 1.162990e-02 1.180084e-02 1.165071e-02 1.125759e-02 1.069904e-02 1.004270e-02 9.341736e-03 8.634188e-03 7.944907e-03 7.288543e-03 6.672597e-03 6.099972e-03 5.570839e-03 5.083876e-03 4.637020e-03 4.227888e-03 3.853996e-03 3.512872e-03 3.202098e-03 2.919343e-03 2.662370e-03 2.429050e-03 2.217366e-03 2.025418e-03 1.851433e-03 1.693758e-03 1.550869e-03 1.421361e-03
-1.601530e-03 -1.757117e-03 -1.928657e-03 -2.117471e-03 -2.324823e-03 -2.551838e-03 -2.799382e-03 -3.067906e-03 -3.357230e-03 -3.666264e-03 -3.992652e-03 -4.332329e-03 -4.678998e-03 -5.023531e-03 -5.353339e-03 -5.651774e-03 -5.897684e-03 -6.065298e-03 -6.124644e-03 -6.042779e-03 -5.786062e-03 -5.323608e-03 -4.631845e-03 -3.699749e-03 -2.533932e-03 -1.162410e-03 3.642658e-04 1.975522e-03 3.587221e-03 5.111317e-03 6.466949e-03 7.590599e-03 8.443106e-03 9.012142e-03 9.310037e-03 9.368029e-03 9.228753e-03 8.938806e-03 8.542796e-03 8.079505e-03 7.580133e-03 7.068165e-03 6.560245e-03 6.067483e-03 5.596826e-03 5.152241e-03 4.735664e-03 4.347678e-03 3.987995e-03 3.655773e-03 3.349829e-03 3.068777e-03 2.811119e-03 2.575308e-03 2.359793e-03 2.163047e-03 1.983595e-03 1.820023e-03 1.670993e-03 1.535248e-03 1.411614e-03
-1.576141e-03 -1.719658e-03 -1.876346e-03 -2.046988e-03 -2.232228e-03 -2.432488e-03 -2.647858e-03 -2.877950e-03 -3.121717e-03 -3.377228e-03 -3.641400e-03 -3.909679e-03 -4.175696e-03 -4.430909e-03 -4.664269e-03 -4.861971e-03 -5.007383e-03 -5.081249e-03 -5.062297e-03 -4.928380e-03 -4.658222e-03 -4.233774e-03 -3.643045e-03 -2.883087e-03 -1.962627e-03 -9.037460e-04 2.580354e-04 1.475652e-03 2.694424e-03 3.857553e-03 4.912288e-03 5.815607e-03 6.538344e-03 7.067037e-03 7.403370e-03 7.561610e-03 7.564829e-03 7.440803e-03 7.218358e-03 6.924609e-03 6.583249e-03 6.213795e-03 5.831536e-03 5.447933e-03 5.071228e-03 4.707094e-03 4.359243e-03 4.029920e-03 3.720310e-03 3.430837e-03 3.161389e-03 2.911483e-03 2.680385e-03 2.467198e-03 2.270924e-03 2.090513e-03 1.924900e-03 1.773025e-03 1.633858e-03 1.506406e-03 1.389727e-03
-1.536634e-03 -1.667405e-03 -1.808776e-03 -1.961099e-03 -2.124544e-03 -2.299016e-03 -2.484063e-03 -2.678751e-03 -2.881525e-03 -3.090033e-03 -3.300936e-03 -3.509702e-03 -3.710389e-03 -3.895459e-03 -4.055627e-03 -4.179823e-03 -4.255286e-03 -4.267889e-03 -4.202733e-03 -4.045069e-03 -3.781568e-03 -3.401879e-03 -2.900372e-03 -2.277832e-03 -1.542824e-03 -7.124000e-04 1.881431e-04 1.126622e-03 2.066401e-03 2.969639e-03 3.800857e-03 4.530252e-03 5.136201e-03 5.606579e-03 5.938781e-03 6.138592e-03 6.218264e-03 6.194239e-03 6.084935e-03 5.908883e-03 5.683370e-03 5.423616e-03 5.142407e-03 4.850061e-03 4.554621e-03 4.262150e-03 3.977066e-03 3.702468e-03 3.440416e-03 3.192175e-03 2.958409e-03 2.739331e-03 2.534825e-03 2.344541e-03 2.167962e-03 2.004458e-03 1.853334e-03 1.713855e-03 1.585272e-03 1.466840e-03 1.357833e-03
-1.486079e-03 -1.603950e-03 -1.730119e-03 -1.864611e-03 -2.007249e-03 -2.157581e-03 -2.314808e-03 -2.477680e-03 -2.644394e-03 -2.812469e-03 -2.978619e-03 -3.138622e-03 -3.287207e-03 -3.417969e-03 -3.523335e-03 -3.594622e-03 -3.622207e-03 -3.595856e-03 -3.505230e-03 -3.340586e-03 -3.093672e-03 -2.758740e-03 -2.333610e-03 -1.820638e-03 -1.227417e-03 -5.670343e-04 1.422306e-04 8.778641e-04 1.614661e-03 2.326699e-03 2.989487e-03 3.581961e-03 4.088055e-03 4.497620e-03 4.806622e-03 5.016666e-03 5.134013e-03 5.168303e-03 5.131217e-03 5.035253e-03 4.892745e-03 4.715150e-03 4.512632e-03 4.293855e-03 4.065973e-03 3.834712e-03 3.604533e-03 3.378812e-03 3.160022e-03 2.949902e-03 2.749606e-03 2.559829e-03 2.380911e-03 2.212920e-03 2.055726e-03 1.909047e-03 1.772500e-03 1.645627e-03 1.527929e-03 1.418881e-03 1.317949e-03
-1.427273e-03 -1.532494e-03 -1.644006e-03 -1.761600e-03 -1.884859e-03 -2.013108e-03 -2.145346e-03 -2.280179e-03 -2.415740e-03 -2.549605e-03 -2.678719e-03 -2.799317e-03 -2.906877e-03 -2.996098e-03 -3.060930e-03 -3.094670e-03 -3.090149e-03 -3.040020e-03 -2.937162e-03 -2.775199e-03 -2.549106e-03 -2.255873e-03 -1.895152e-03 -1.469806e-03 -9.862622e-04 -4.545775e-04 1.118511e-04 6.969496e-04 1.282968e-03 1.851719e-03 2.385911e-03 2.870389e-03 3.293146e-03 3.645960e-03 3.924621e-03 4.128752e-03 4.261304e-03 4.327836e-03 4.335705e-03 4.293277e-03 4.209231e-03 4.092018e-03 3.949474e-03 3.788591e-03 3.615400e-03 3.434960e-03 3.251407e-03 3.068038e-03 2.887417e-03 2.711479e-03 2.541641e-03 2.378890e-03 2.223869e-03 2.076947e-03 1.938278e-03 1.807852e-03 1.685533e-03 1.571094e-03 1.464242e-03 1.364641e-03 1.271925e-03
-1.362685e-03 -1.455800e-03 -1.553501e-03 -1.655416e-03 -1.760980e-03 -1.869391e-03 -1.979563e-03 -2.090072e-03 -2.199107e-03 -2.304414e-03 -2.403257e-03 -2.492378e-03 -2.567989e-03 -2.625784e-03 -2.661002e-03 -2.668528e-03 -2.643068e-03 -2.579388e-03 -2.472621e-03 -2.318636e-03 -2.114459e-03 -1.858694e-03 -1.551920e-03 -1.197002e-03 -7.992626e-04 -3.664585e-04 9.145451e-05 5.627892e-04 1.034788e-03 1.494423e-03 1.929239e-03 2.328159e-03 2.682141e-03 2.984622e-03 3.231724e-03 3.422208e-03 3.557214e-03 3.639856e-03 3.674729e-03 3.667396e-03 3.623917e-03 3.550446e-03 3.452916e-03 3.336823e-03 3.207094e-03 3.068016e-03 2.923232e-03 2.775766e-03 2.628072e-03 2.482098e-03 2.339351e-03 2.200964e-03 2.067757e-03 1.940293e-03 1.818924e-03 1.703837e-03 1.595085e-03 1.492620e-03 1.396316e-03 1.305990e-03 1.221416e-03
-1.294431e-03 -1.376188e-03 -1.461108e-03 -1.548723e-03 -1.638386e-03 -1.729244e-03 -1.820199e-03 -1.909878e-03 -1.996596e-03 -2.078329e-03 -2.152687e-03 -2.216914e-03 -2.267890e-03 -2.302169e-03 -2.316041e-03 -2.305640e-03 -2.267085e-03 -2.196671e-03 -2.091096e-03 -1.947732e-03 -1.764894e-03 -1.542124e-03 -1.280430e-03 -9.824539e-04 -6.525543e-04 -2.967510e-04 7.746298e-05 4.614502e-04 8.458753e-04 1.221231e-03 1.578392e-03 1.909142e-03 2.206612e-03 2.465596e-03 2.682717e-03 2.856435e-03 2.986924e-03 3.075837e-03 3.126003e-03 3.141103e-03 3.125343e-03 3.083169e-03 3.019021e-03 2.937152e-03 2.841498e-03 2.735598e-03 2.622557e-03 2.505038e-03 2.385278e-03 2.265119e-03 2.146048e-03 2.029238e-03 1.915589e-03 1.805772e-03 1.700267e-03 1.599392e-03 1.503336e-03 1.412184e-03 1.325938e-03 1.244537e-03 1.167869e-03
-1.224284e-03 -1.295551e-03 -1.368823e-03 -1.443578e-03 -1.519139e-03 -1.594653e-03 -1.669065e-03 -1.741098e-03 -1.809230e-03 -1.871684e-03 -1.926419e-03 -1.971137e-03 -2.003302e-03 -2.020183e-03 -2.018919e-03 -1.996605e-03 -1.950413e-03 -1.877738e-03 -1.776367e-03 -1.644663e-03 -1.481754e-03 -1.287712e-03 -1.063694e-03 -8.120425e-04 -5.363086e-04 -2.411951e-04 6.759096e-05 3.835721e-04 6.998070e-04 1.009244e-03 1.305094e-03 1.581179e-03 1.832237e-03 2.054140e-03 2.244031e-03 2.400346e-03 2.522765e-03 2.612072e-03 2.669973e-03 2.698886e-03 2.701718e-03 2.681662e-03 2.642017e-03 2.586038e-03 2.516828e-03 2.437254e-03 2.349904e-03 2.257060e-03 2.160696e-03 2.062486e-03 1.963826e-03 1.865858e-03 1.769495e-03 1.675455e-03 1.584283e-03 1.496380e-03 1.412025e-03 1.331397e-03 1.254592e-03 1.181642e-03 1.112523e-03
-1.153689e-03 -1.215397e-03 -1.278183e-03 -1.341507e-03 -1.404699e-03 -1.466940e-03 -1.527249e-03 -1.584468e-03 -1.637254e-03 -1.684074e-03 -1.723211e-03 -1.752771e-03 -1.770715e-03 -1.774897e-03 -1.763124e-03 -1.733225e-03 -1.683154e-03 -1.611093e-03 -1.515581e-03 -1.395636e-03 -1.250891e-03 -1.081698e-03 -8.892234e-04 -6.754944e-04 -4.434014e-04 -1.966437e-04 6.038361e-05 3.227586e-04 5.852456e-04 8.425385e-04 1.089514e-03 1.321471e-03 1.534343e-03 1.724851e-03 1.890612e-03 2.030166e-03 2.142963e-03 2.229278e-03 2.290104e-03 2.327011e-03 2.342000e-03 2.337356e-03 2.315517e-03 2.278958e-03 2.230100e-03 2.171239e-03 2.104498e-03 2.031795e-03 1.954833e-03 1.875092e-03 1.793841e-03 1.712145e-03 1.630888e-03 1.550786e-03 1.472410e-03 1.396203e-03 1.322498e-03 1.251535e-03 1.183477e-03 1.118422e-03 1.056414e-03
-1.083792e-03 -1.136885e-03 -1.190330e-03 -1.243596e-03 -1.296039e-03 -1.346899e-03 -1.395283e-03 -1.440163e-03 -1.480374e-03 -1.514612e-03 -1.541447e-03 -1.559334e-03 -1.566648e-03 -1.561711e-03 -1.542852e-03 -1.508460e-03 -1.457061e-03 -1.387402e-03 -1.298536e-03 -1.189915e-03 -1.061475e-03 -9.137061e-04 -7.477080e-04 -5.652128e-04 -3.685755e-04 -1.607264e-04 5.491545e-05 2.745649e-04 4.942220e-04 7.098412e-04 9.175077e-04 1.113605e-03 1.294960e-03 1.458962e-03 1.603636e-03 1.727679e-03 1.830453e-03 1.911944e-03 1.972693e-03 2.013704e-03 2.036346e-03 2.042249e-03 2.033208e-03 2.011096e-03 1.977791e-03 1.935114e-03 1.884789e-03 1.828406e-03 1.767410e-03 1.703084e-03 1.636553e-03 1.568786e-03 1.500607e-03 1.432704e-03 1.365640e-03 1.299873e-03 1.235761e-03 1.173582e-03 1.113540e-03 1.055779e-03 1.000393e-03
-1.015478e-03 -1.060880e-03 -1.106079e-03 -1.150566e-03 -1.193744e-03 -1.234918e-03 -1.273292e-03 -1.307968e-03 -1.337946e-03 -1.362129e-03 -1.379337e-03 -1.388322e-03 -1.387793e-03 -1.376449e-03 -1.353020e-03 -1.316318e-03 -1.265291e-03 -1.199085e-03 -1.117107e-03 -1.019091e-03 -9.051500e-04 -7.758265e-04 -6.321211e-04 -4.755026e-04 -3.078940e-04 -1.316325e-04 5.059700e-05 2.358518e-04 4.210400e-04 6.030407e-04 7.788281e-04 9.455900e-04 1.100833e-03 1.242465e-03 1.368858e-03 1.478872e-03 1.571863e-03 1.647660e-03 1.706519e-03 1.749066e-03 1.776231e-03 1.789171e-03 1.789206e-03 1.777749e-03 1.756248e-03 1.726140e-03 1.688814e-03 1.645577e-03 1.597637e-03 1.546093e-03 1.491926e-03 1.435997e-03 1.379057e-03 1.321745e-03 1.264602e-03 1.208076e-03 1.152533e-03 1.098265e-03 1.045502e-03 9.944181e-04 9.451384e-04
-9.494065e-04 -9.879979e-04 -1.025972e-03 -1.062855e-03 -1.098101e-03 -1.131086e-03 -1.161111e-03 -1.187400e-03 -1.209105e-03 -1.225310e-03 -1.235050e-03 -1.237319e-03 -1.231100e-03 -1.215388e-03 -1.189224e-03 -1.151735e-03 -1.102179e-03 -1.039985e-03 -9.648011e-04 -8.765406e-04 -7.754168e-04 -6.619735e-04 -5.371020e-04 -4.020429e-04 -2.583716e-04 -1.079643e-04 4.705200e-05 2.043666e-04 3.615642e-04 5.162109e-04 6.659436e-04 8.085546e-04 9.420677e-04 1.064800e-03 1.175408e-03 1.272909e-03 1.356694e-03 1.426512e-03 1.482443e-03 1.524863e-03 1.554393e-03 1.571855e-03 1.578214e-03 1.574533e-03 1.561928e-03 1.541528e-03 1.514443e-03 1.481741e-03 1.444426e-03 1.403425e-03 1.359583e-03 1.313657e-03 1.266316e-03 1.218144e-03 1.169643e-03 1.121240e-03 1.073295e-03 1.026101e-03 9.798978e-04 9.348760e-04 8.911822e-04
-8.860486e-04 -9.186509e-04 -9.503377e-04 -9.806748e-04 -1.009170e-03 -1.035273e-03 -1.058376e-03 -1.077814e-03 -1.092872e-03 -1.102794e-03 -1.106792e-03 -1.104063e-03 -1.093807e-03 -1.075251e-03 -1.047676e-03 -1.010445e-03 -9.630399e-04 -9.050901e-04 -8.364081e-04 -7.570187e-04 -6.671846e-04 -5.674242e-04 -4.585212e-04 -3.415217e-04 -2.177205e-04 -8.863397e-05 4.403944e-05 1.784687e-04 3.127483e-04 4.449615e-04 5.732449e-04 6.958498e-04 8.111983e-04 9.179289e-04 1.014931e-03 1.101367e-03 1.176677e-03 1.240579e-03 1.293047e-03 1.334290e-03 1.364718e-03 1.384907e-03 1.395564e-03 1.397487e-03 1.391532e-03 1.378585e-03 1.359531e-03 1.335235e-03 1.306527e-03 1.274185e-03 1.238928e-03 1.201414e-03 1.162230e-03 1.121902e-03 1.080888e-03 1.039586e-03 9.983371e-04 9.574281e-04 9.170987e-04 8.775452e-04 8.389257e-04
-8.257185e-04 -8.530863e-04 -8.793329e-04 -9.040662e-04 -9.268491e-04 -9.471997e-04 -9.645935e-04 -9.784665e-04 -9.882212e-04 -9.932344e-04 -9.928678e-04 -9.864815e-04 -9.734501e-04 -9.531816e-04 -9.251390e-04 -8.888633e-04 -8.439983e-04 -7.903146e-04 -7.277337e-04 -6.563480e-04 -5.764384e-04 -4.884846e-04 -3.931697e-04 -2.913758e-04 -1.841714e-04 -7.278902e-05 4.140436e-05 1.569455e-04 2.723178e-04 3.859979e-04 4.965033e-04 6.024374e-04 7.025309e-04 7.956765e-04 8.809550e-04 9.576530e-04 1.025270e-03 1.083517e-03 1.132309e-03 1.171743e-03 1.202084e-03 1.223733e-03 1.237204e-03 1.243095e-03 1.242064e-03 1.234802e-03 1.222013e-03 1.204398e-03 1.182637e-03 1.157379e-03 1.129234e-03 1.098764e-03 1.066485e-03 1.032860e-03 9.983027e-04 9.631770e-04 9.278005e-04 8.924462e-04 8.573469e-04 8.226977e-04 7.886605e-04
-7.686047e-04 -7.914219e-04 -8.129859e-04 -8.329465e-04 -8.509190e-04 -8.664853e-04 -8.791964e-04 -8.885767e-04 -8.941290e-04 -8.953427e-04 -8.917028e-04 -8.827014e-04 -8.678516e-04 -8.467022e-04 -8.188551e-04 -7.839829e-04 -7.418474e-04 -6.923176e-04 -6.353863e-04 -5.711842e-04 -4.999916e-04 -4.222440e-04 -3.385338e-04 -2.496054e-04 -1.563439e-04 -5.975732e-05 3.904652e-05 1.388890e-04 2.385532e-04 3.368181e-04 4.324944e-04 5.244582e-04 6.116813e-04 6.932582e-04 7.684260e-04 8.365784e-04 8.972729e-04 9.502313e-04 9.953342e-04 1.032610e-03 1.062220e-03 1.084441e-03 1.099645e-03 1.108279e-03 1.110847e-03 1.107888e-03 1.099963e-03 1.087635e-03 1.071461e-03 1.051981e-03 1.029706e-03 1.005118e-03 9.786613e-04 9.507437e-04 9.217328e-04 8.919575e-04 8.617092e-04 8.312426e-04 8.007786e-04 7.705065e-04 7.405865e-04
-7.147958e-04 -7.336760e-04 -7.512283e-04 -7.671428e-04 -7.810835e-04 -7.926902e-04 -8.015811e-04 -8.073568e-04 -8.096058e-04 -8.079114e-04 -8.018595e-04 -7.910487e-04 -7.751012e-04 -7.536753e-04 -7.264784e-04 -6.932806e-04 -6.539290e-04 -6.083602e-04 -5.566128e-04 -4.988365e-04 -4.352999e-04 -3.663936e-04 -2.926299e-04 -2.146378e-04 -1.331535e-04 -4.900615e-05 3.690059e-05 1.236105e-04 2.101393e-04 2.955009e-04 3.787340e-04 4.589271e-04 5.352424e-04 6.069352e-04 6.733702e-04 7.340324e-04 7.885338e-04 8.366144e-04 8.781398e-04 9.130934e-04 9.415668e-04 9.637468e-04 9.799012e-04 9.903638e-04 9.955191e-04 9.957881e-04 9.916145e-04 9.834526e-04 9.717569e-04 9.569730e-04 9.395306e-04 9.198380e-04 8.982779e-04 8.752048e-04 8.509431e-04 8.257872e-04 8.000009e-04 7.738187e-04 7.474468e-04 7.210649e-04 6.948279e-04
-6.643032e-04 -6.797922e-04 -6.939222e-04 -7.064213e-04 -7.169981e-04 -7.253439e-04 -7.311355e-04 -7.340393e-04 -7.337160e-04 -7.298265e-04 -7.220393e-04 -7.100381e-04 -6.935314e-04 -6.722619e-04 -6.460169e-04 -6.146389e-04 -5.780358e-04 -5.361905e-04 -4.891693e-04 -4.371288e-04 -3.803199e-04 -3.190902e-04 -2.538818e-04 -1.852276e-04 -1.137422e-04 -4.011120e-05 3.492350e-05 1.105808e-04 1.860590e-04 2.605560e-04 3.332889e-04 4.035140e-04 4.705438e-04 5.337630e-04 5.926405e-04 6.467387e-04 6.957189e-04 7.393433e-04 7.774730e-04 8.100644e-04 8.371613e-04 8.588864e-04 8.754304e-04 8.870414e-04 8.940130e-04 8.966728e-04 8.953725e-04 8.904771e-04 8.823569e-04 8.713798e-04 8.579046e-04 8.422766e-04 8.248232e-04 8.058513e-04 7.856451e-04 7.644657e-04 7.425500e-04 7.201113e-04 6.973395e-04 6.744029e-04 6.514484e-04
-6.170795e-04 -6.296589e-04 -6.408814e-04 -6.505097e-04 -6.582923e-04 -6.639662e-04 -6.672589e-04 -6.678928e-04 -6.655889e-04 -6.600725e-04 -6.510789e-04 -6.383600e-04 -6.216918e-04 -6.008825e-04 -5.757796e-04 -5.462788e-04 -5.123313e-04 -4.739509e-04 -4.312198e-04 -3.842932e-04 -3.334020e-04 -2.788535e-04 -2.210295e-04 -1.603820e-04 -9.742658e-05 -3.273291e-05 3.308639e-05 9.938914e-05 1.655181e-04 2.308161e-04 2.946418e-04 3.563839e-04 4.154754e-04 4.714051e-04 5.237274e-04 5.720701e-04 6.161383e-04 6.557169e-04 6.906701e-04 7.209383e-04 7.465332e-04 7.675318e-04 7.840683e-04 7.963260e-04 8.045284e-04 8.089304e-04 8.098103e-04 8.074612e-04 8.021845e-04 7.942831e-04 7.840562e-04 7.717947e-04 7.577777e-04 7.422697e-04 7.255184e-04 7.077537e-04 6.891868e-04 6.700099e-04 6.503964e-04 6.305016e-04 6.104631e-04
