3.643445e-04 3.730573e-04 3.814013e-04 3.892773e-04 3.965751e-04 4.031721e-04 4.089337e-04 4.137126e-04 4.173493e-04 4.196724e-04 4.204993e-04 4.196382e-04 4.168893e-04 4.120481e-04 4.049079e-04 3.952645e-04 3.829201e-04 3.676893e-04 3.494042e-04 3.279213e-04 3.031275e-04 2.749470e-04 2.433475e-04 2.083457e-04 1.700127e-04 1.284773e-04 8.392817e-05 3.661490e-05 -1.315393e-05 -6.501382e-05 -1.185499e-04 -1.733039e-04 -2.287838e-04 -2.844731e-04 -3.398433e-04 -3.943648e-04 -4.475195e-04 -4.988119e-04 -5.477798e-04 -5.940038e-04 -6.371152e-04 -6.768015e-04 -7.128111e-04 -7.449550e-04 -7.731071e-04 -7.972027e-04 -8.172355e-04 -8.332532e-04 -8.453521e-04 -8.536711e-04 -8.583852e-04 -8.596992e-04 -8.578402e-04 -8.530524e-04 -8.455904e-04 -8.357141e-04 -8.236837e-04 -8.097561e-04 -7.941808e-04 -7.771974e-04 -7.590332e-04
3.839852e-04 3.938883e-04 4.034522e-04 4.125700e-04 4.211217e-04 4.289728e-04 4.359739e-04 4.419603e-04 4.467519e-04 4.501532e-04 4.519546e-04 4.519330e-04 4.498544e-04 4.454768e-04 4.385531e-04 4.288366e-04 4.160857e-04 4.000708e-04 3.805810e-04 3.574325e-04 3.304762e-04 2.996064e-04 2.647691e-04 2.259693e-04 1.832778e-04 1.368360e-04 8.685952e-05 3.363890e-05 -2.246167e-05 -8.100851e-05 -1.415051e-04 -2.034014e-04 -2.661050e-04 -3.289948e-04 -3.914351e-04 -4.527908e-04 -5.124430e-04 -5.698029e-04 -6.243255e-04 -6.755211e-04 -7.229648e-04 -7.663034e-04 -8.052598e-04 -8.396349e-04 -8.693073e-04 -8.942302e-04 -9.144269e-04 -9.299850e-04 -9.410483e-04 -9.478096e-04 -9.505018e-04 -9.493893e-04 -9.447602e-04 -9.369180e-04 -9.261751e-04 -9.128456e-04 -8.972407e-04 -8.796634e-04 -8.604048e-04 -8.397414e-04 -8.179325e-04
4.043062e-04 4.155143e-04 4.264233e-04 4.369189e-04 4.468710e-04 4.561326e-04 4.645390e-04 4.719065e-04 4.780323e-04 4.826945e-04 4.856524e-04 4.866475e-04 4.854061e-04 4.816420e-04 4.750601e-04 4.653626e-04 4.522546e-04 4.354520e-04 4.146905e-04 3.897352e-04 3.603909e-04 3.265130e-04 2.880181e-04 2.448940e-04 1.972086e-04 1.451167e-04 8.886492e-05 2.879303e-05 -3.466714e-05 -1.009969e-04 -1.695988e-04 -2.398089e-04 -3.109109e-04 -3.821536e-04 -4.527691e-04 -5.219928e-04 -5.890826e-04 -6.533370e-04 -7.141125e-04 -7.708372e-04 -8.230225e-04 -8.702711e-04 -9.122816e-04 -9.488502e-04 -9.798684e-04 -1.005319e-03 -1.025268e-03 -1.039858e-03 -1.049297e-03 -1.053847e-03 -1.053815e-03 -1.049541e-03 -1.041387e-03 -1.029730e-03 -1.014951e-03 -9.974271e-04 -9.775293e-04 -9.556132e-04 -9.320164e-04 -9.070559e-04 -8.810256e-04
4.252401e-04 4.378725e-04 4.502579e-04 4.622747e-04 4.737832e-04 4.846237e-04 4.946149e-04 5.035533e-04 5.112115e-04 5.173379e-04 5.216570e-04 5.238702e-04 5.236576e-04 5.206810e-04 5.145888e-04 5.050214e-04 4.916189e-04 4.740306e-04 4.519252e-04 4.250035e-04 3.930111e-04 3.557528e-04 3.131059e-04 2.650339e-04 2.115980e-04 1.529670e-04 8.942342e-05 2.136679e-05 -5.068816e-05 -1.261174e-04 -2.041981e-04 -2.841242e-04 -3.650249e-04 -4.459870e-04 -5.260789e-04 -6.043763e-04 -6.799863e-04 -7.520717e-04 -8.198714e-04 -8.827182e-04 -9.400523e-04 -9.914306e-04 -1.036531e-03 -1.075154e-03 -1.107215e-03 -1.132744e-03 -1.151868e-03 -1.164805e-03 -1.171846e-03 -1.173346e-03 -1.169704e-03 -1.161353e-03 -1.148749e-03 -1.132354e-03 -1.112632e-03 -1.090035e-03 -1.065002e-03 -1.037946e-03 -1.009259e-03 -9.792986e-04 -9.483967e-04
4.466989e-04 4.608778e-04 4.748755e-04 4.885637e-04 5.017932e-04 5.143914e-04 5.261606e-04 5.368756e-04 5.462826e-04 5.540977e-04 5.600063e-04 5.636640e-04 5.646975e-04 5.627084e-04 5.572772e-04 5.479705e-04 5.343495e-04 5.159808e-04 4.924501e-04 4.633768e-04 4.284309e-04 3.873512e-04 3.399629e-04 2.861957e-04 2.260992e-04 1.598564e-04 8.779251e-05 1.037976e-05 -7.176431e-05 -1.578842e-04 -2.470999e-04 -3.384270e-04 -4.308007e-04 -5.231054e-04 -6.142060e-04 -7.029803e-04 -7.883517e-04 -8.693185e-04 -9.449809e-04 -1.014562e-03 -1.077424e-03 -1.133079e-03 -1.181191e-03 -1.221578e-03 -1.254202e-03 -1.279157e-03 -1.296659e-03 -1.307027e-03 -1.310664e-03 -1.308040e-03 -1.299672e-03 -1.286112e-03 -1.267925e-03 -1.245678e-03 -1.219932e-03 -1.191226e-03 -1.160073e-03 -1.126954e-03 -1.092315e-03 -1.056562e-03 -1.020061e-03
4.685715e-04 4.844206e-04 5.001694e-04 5.156839e-04 5.308058e-04 5.453502e-04 5.591021e-04 5.718145e-04 5.832049e-04 5.929539e-04 6.007038e-04 6.060579e-04 6.085818e-04 6.078063e-04 6.032316e-04 5.943356e-04 5.805830e-04 5.614389e-04 5.363851e-04 5.049382e-04 4.666716e-04 4.212385e-04 3.683953e-04 3.080253e-04 2.401602e-04 1.649975e-04 8.291385e-05 -5.528624e-06 -9.958358e-05 -1.983297e-04 -3.006883e-04 -4.054492e-04 -5.113035e-04 -6.168810e-04 -7.207922e-04 -8.216707e-04 -9.182145e-04 -1.009225e-03 -1.093638e-03 -1.170554e-03 -1.239253e-03 -1.299206e-03 -1.350078e-03 -1.391725e-03 -1.424179e-03 -1.447636e-03 -1.462430e-03 -1.469017e-03 -1.467944e-03 -1.459831e-03 -1.445343e-03 -1.425175e-03 -1.400027e-03 -1.370591e-03 -1.337537e-03 -1.301505e-03 -1.263092e-03 -1.222850e-03 -1.181284e-03 -1.138847e-03 -1.095940e-03
4.907206e-04 5.083631e-04 5.260028e-04 5.435011e-04 5.606919e-04 5.773782e-04 5.933283e-04 6.082721e-04 6.218972e-04 6.338457e-04 6.437116e-04 6.510395e-04 6.553247e-04 6.560149e-04 6.525155e-04 6.441970e-04 6.304069e-04 6.104847e-04 5.837820e-04 5.496856e-04 5.076451e-04 4.572028e-04 3.980247e-04 3.299320e-04 2.529297e-04 1.672314e-04 7.327679e-05 -2.825871e-05 -1.364649e-04 -2.502091e-04 -3.681588e-04 -4.888168e-04 -6.105635e-04 -7.317080e-04 -8.505427e-04 -9.653984e-04 -1.074699e-03 -1.177010e-03 -1.271079e-03 -1.355868e-03 -1.430574e-03 -1.494642e-03 -1.547761e-03 -1.589855e-03 -1.621068e-03 -1.641734e-03 -1.652355e-03 -1.653565e-03 -1.646102e-03 -1.630774e-03 -1.608430e-03 -1.579940e-03 -1.546163e-03 -1.507939e-03 -1.466064e-03 -1.421289e-03 -1.374302e-03 -1.325733e-03 -1.276145e-03 -1.226036e-03 -1.175840e-03
5.129810e-04 5.325369e-04 5.522058e-04 5.718457e-04 5.912842e-04 6.103134e-04 6.286852e-04 6.461062e-04 6.622324e-04 6.766645e-04 6.889433e-04 6.985472e-04 7.048903e-04 7.073236e-04 7.051392e-04 6.975784e-04 6.838447e-04 6.631220e-04 6.345985e-04 5.974962e-04 5.511060e-04 4.948263e-04 4.282051e-04 3.509809e-04 2.631224e-04 1.648618e-04 5.671933e-05 -6.048343e-05 -1.856244e-04 -3.172972e-04 -4.538422e-04 -5.933927e-04 -7.339331e-04 -8.733665e-04 -1.009586e-03 -1.140551e-03 -1.264351e-03 -1.379274e-03 -1.483852e-03 -1.576902e-03 -1.657549e-03 -1.725233e-03 -1.779701e-03 -1.820997e-03 -1.849425e-03 -1.865521e-03 -1.870008e-03 -1.863761e-03 -1.847757e-03 -1.823043e-03 -1.790695e-03 -1.751791e-03 -1.707383e-03 -1.658474e-03 -1.606009e-03 -1.550854e-03 -1.493798e-03 -1.435546e-03 -1.376718e-03 -1.317854e-03 -1.259414e-03
5.351566e-04 5.567405e-04 5.785723e-04 6.005093e-04 6.223741e-04 6.439496e-04 6.649722e-04 6.851255e-04 7.040327e-04 7.212499e-04 7.362598e-04 7.484659e-04 7.571888e-04 7.616660e-04 7.610542e-04 7.544381e-04 7.408439e-04 7.192610e-04 6.886714e-04 6.480867e-04 5.965930e-04 5.334027e-04 4.579091e-04 3.697428e-04 2.688252e-04 1.554139e-04 3.013652e-05 -1.059913e-04 -2.515671e-04 -4.048244e-04 -5.636755e-04 -7.257752e-04 -8.885990e-04 -1.049535e-03 -1.205978e-03 -1.355429e-03 -1.495580e-03 -1.624395e-03 -1.740174e-03 -1.841589e-03 -1.927713e-03 -1.998025e-03 -2.052391e-03 -2.091035e-03 -2.114501e-03 -2.123601e-03 -2.119358e-03 -2.102954e-03 -2.075677e-03 -2.038866e-03 -1.993875e-03 -1.942029e-03 -1.884601e-03 -1.822782e-03 -1.757673e-03 -1.690269e-03 -1.621458e-03 -1.552017e-03 -1.482618e-03 -1.413830e-03 -1.346128e-03
5.570185e-04 5.807362e-04 6.048577e-04 6.292415e-04 6.537080e-04 6.780329e-04 7.019389e-04 7.250869e-04 7.470669e-04 7.673879e-04 7.854681e-04 8.006268e-04 8.120770e-04 8.189219e-04 8.201559e-04 8.146714e-04 8.012747e-04 7.787101e-04 7.456964e-04 7.009742e-04 6.433640e-04 5.718350e-04 4.855789e-04 3.840871e-04 2.672228e-04 1.352843e-04 -1.094957e-05 -1.701958e-04 -3.406712e-04 -5.201251e-04 -7.059018e-04 -8.950283e-04 -1.084324e-03 -1.270522e-03 -1.450399e-03 -1.620901e-03 -1.779252e-03 -1.923057e-03 -2.050371e-03 -2.159747e-03 -2.250256e-03 -2.321481e-03 -2.373492e-03 -2.406793e-03 -2.422266e-03 -2.421099e-03 -2.404712e-03 -2.374684e-03 -2.332688e-03 -2.280426e-03 -2.219578e-03 -2.151761e-03 -2.078494e-03 -2.001177e-03 -1.921076e-03 -1.839316e-03 -1.756877e-03 -1.674600e-03 -1.593194e-03 -1.513245e-03 -1.435225e-03
5.783026e-04 6.042482e-04 6.307757e-04 6.577476e-04 6.849853e-04 7.122601e-04 7.392833e-04 7.656952e-04 7.910520e-04 8.148131e-04 8.363267e-04 8.548168e-04 8.693715e-04 8.789348e-04 8.823036e-04 8.781331e-04 8.649520e-04 8.411918e-04 8.052308e-04 7.554550e-04 6.903357e-04 6.085212e-04 5.089393e-04 3.909028e-04 2.542102e-04 9.923224e-05 -7.302668e-05 -2.609000e-04 -4.620695e-04 -6.736177e-04 -8.921195e-04 -1.113770e-03 -1.334537e-03 -1.550325e-03 -1.757153e-03 -1.951306e-03 -2.129483e-03 -2.288910e-03 -2.427421e-03 -2.543507e-03 -2.636324e-03 -2.705671e-03 -2.751944e-03 -2.776060e-03 -2.779374e-03 -2.763577e-03 -2.730603e-03 -2.682537e-03 -2.621523e-03 -2.549697e-03 -2.469123e-03 -2.381746e-03 -2.289357e-03 -2.193577e-03 -2.095837e-03 -1.997381e-03 -1.899272e-03 -1.802394e-03 -1.707472e-03 -1.615084e-03 -1.525675e-03
5.987071e-04 6.269601e-04 6.559961e-04 6.856861e-04 7.158559e-04 7.462767e-04 7.766521e-04 8.066041e-04 8.356569e-04 8.632183e-04 8.885604e-04 9.108000e-04 9.288796e-04 9.415524e-04 9.473731e-04 9.446986e-04 9.317030e-04 9.064101e-04 8.667484e-04 8.106309e-04 7.360592e-04 6.412507e-04 5.247823e-04 3.857392e-04 2.238580e-04 3.964553e-05 -1.655388e-04 -3.894521e-04 -6.289957e-04 -8.803038e-04 -1.138887e-03 -1.399820e-03 -1.657961e-03 -1.908180e-03 -2.145580e-03 -2.365702e-03 -2.564691e-03 -2.739427e-03 -2.887604e-03 -3.007768e-03 -3.099311e-03 -3.162417e-03 -3.197984e-03 -3.207521e-03 -3.193022e-03 -3.156842e-03 -3.101570e-03 -3.029910e-03 -2.944578e-03 -2.848214e-03 -2.743319e-03 -2.632195e-03 -2.516923e-03 -2.399339e-03 -2.281030e-03 -2.163341e-03 -2.047385e-03 -1.934063e-03 -1.824081e-03 -1.717978e-03 -1.616141e-03
6.178901e-04 6.485113e-04 6.801418e-04 7.126654e-04 7.459181e-04 7.796760e-04 8.136408e-04 8.474212e-04 8.805122e-04 9.122702e-04 9.418862e-04 9.683569e-04 9.904552e-04 1.006704e-03 1.015357e-03 1.014392e-03 1.001517e-03 9.742154e-04 9.298046e-04 8.655475e-04 7.787953e-04 6.671684e-04 5.287641e-04 3.623748e-04 1.676948e-04 -5.450982e-05 -3.022940e-04 -5.725080e-04 -8.608652e-04 -1.162101e-03 -1.470209e-03 -1.778734e-03 -2.081086e-03 -2.370857e-03 -2.642106e-03 -2.889598e-03 -3.108990e-03 -3.296951e-03 -3.451224e-03 -3.570639e-03 -3.655060e-03 -3.705303e-03 -3.723010e-03 -3.710507e-03 -3.670636e-03 -3.606596e-03 -3.521782e-03 -3.419643e-03 -3.303559e-03 -3.176742e-03 -3.042164e-03 -2.902504e-03 -2.760125e-03 -2.617061e-03 -2.475024e-03 -2.335418e-03 -2.199368e-03 -2.067743e-03 -1.941187e-03 -1.820154e-03 -1.704931e-03
6.354658e-04 6.684937e-04 7.027844e-04 7.382403e-04 7.747146e-04 8.119967e-04 8.497944e-04 8.877116e-04 9.252209e-04 9.616315e-04 9.960514e-04 1.027345e-03 1.054090e-03 1.074531e-03 1.086544e-03 1.087615e-03 1.074836e-03 1.044945e-03 9.944080e-04 9.195619e-04 8.168197e-04 6.829366e-04 5.153229e-04 3.123767e-04 7.379810e-05 -1.991604e-04 -5.035520e-04 -8.347360e-04 -1.186533e-03 -1.551526e-03 -1.921474e-03 -2.287780e-03 -2.641970e-03 -2.976120e-03 -3.283206e-03 -3.557353e-03 -3.793991e-03 -3.989928e-03 -4.143343e-03 -4.253737e-03 -4.321822e-03 -4.349388e-03 -4.339128e-03 -4.294449e-03 -4.219269e-03 -4.117817e-03 -3.994447e-03 -3.853461e-03 -3.698979e-03 -3.534825e-03 -3.364456e-03 -3.190916e-03 -3.016817e-03 -2.844346e-03 -2.675283e-03 -2.511032e-03 -2.352664e-03 -2.200953e-03 -2.056421e-03 -1.919380e-03 -1.789968e-03
6.510001e-04 6.864462e-04 7.234378e-04 7.619044e-04 8.017260e-04 8.427166e-04 8.846035e-04 9.269994e-04 9.693691e-04 1.010986e-03 1.050881e-03 1.087781e-03 1.120043e-03 1.145582e-03 1.161802e-03 1.165544e-03 1.153066e-03 1.120062e-03 1.061770e-03 9.731551e-04 8.492112e-04 6.853660e-04 4.779732e-04 2.248478e-04 -7.422705e-05 -4.171066e-04 -7.990894e-04 -1.212984e-03 -1.649452e-03 -2.097610e-03 -2.545776e-03 -2.982285e-03 -3.396223e-03 -3.778005e-03 -4.119754e-03 -4.415473e-03 -4.661060e-03 -4.854214e-03 -4.994280e-03 -5.082076e-03 -5.119709e-03 -5.110376e-03 -5.058163e-03 -4.967827e-03 -4.844567e-03 -4.693795e-03 -4.520926e-03 -4.331187e-03 -4.129467e-03 -3.920200e-03 -3.707298e-03 -3.494114e-03 -3.283443e-03 -3.077541e-03 -2.878169e-03 -2.686643e-03 -2.503891e-03 -2.330510e-03 -2.166824e-03 -2.012935e-03 -1.868769e-03
6.640043e-04 7.018463e-04 7.415488e-04 7.830791e-04 8.263574e-04 8.712393e-04 9.174913e-04 9.647594e-04 1.012526e-03 1.060055e-03 1.106323e-03 1.149932e-03 1.189008e-03 1.221086e-03 1.242992e-03 1.250733e-03 1.239424e-03 1.203277e-03 1.135704e-03 1.029564e-03 8.775969e-04 6.730612e-04 4.105406e-04 8.685469e-05 -2.980626e-04 -7.404858e-04 -1.232597e-03 -1.762691e-03 -2.315928e-03 -2.875539e-03 -3.424299e-03 -3.945982e-03 -4.426566e-03 -4.854983e-03 -5.223402e-03 -5.527078e-03 -5.763949e-03 -5.934131e-03 -6.039443e-03 -6.083037e-03 -6.069125e-03 -6.002783e-03 -5.889773e-03 -5.736362e-03 -5.549110e-03 -5.334649e-03 -5.099459e-03 -4.849667e-03 -4.590879e-03 -4.328069e-03 -4.065513e-03 -3.806765e-03 -3.554682e-03 -3.311468e-03 -3.078742e-03 -2.857610e-03 -2.648746e-03 -2.452469e-03 -2.268813e-03 -2.097590e-03 -1.938445e-03
6.739273e-04 7.141000e-04 7.564831e-04 8.010957e-04 8.479169e-04 8.968678e-04 9.477855e-04 1.000387e-03 1.054219e-03 1.108588e-03 1.162471e-03 1.214395e-03 1.262282e-03 1.303275e-03 1.333528e-03 1.347996e-03 1.340255e-03 1.302398e-03 1.225088e-03 1.097854e-03 9.097074e-04 6.501462e-04 3.105301e-04 -1.142958e-04 -6.243637e-04 -1.213288e-03 -1.867695e-03 -2.567683e-03 -3.288414e-03 -4.002636e-03 -4.683667e-03 -5.308210e-03 -5.858406e-03 -6.322765e-03 -6.695955e-03 -6.977722e-03 -7.171404e-03 -7.282490e-03 -7.317517e-03 -7.283431e-03 -7.187326e-03 -7.036428e-03 -6.838142e-03 -6.600060e-03 -6.329877e-03 -6.035222e-03 -5.723442e-03 -5.401383e-03 -5.075204e-03 -4.750253e-03 -4.430998e-03 -4.121029e-03 -3.823092e-03 -3.539172e-03 -3.270585e-03 -3.018079e-03 -2.781941e-03 -2.562094e-03 -2.358176e-03 -2.169623e-03 -1.995725e-03
6.801461e-04 7.225278e-04 7.675060e-04 8.151696e-04 8.655814e-04 9.187617e-04 9.746635e-04 1.033135e-03 1.093862e-03 1.156292e-03 1.219513e-03 1.282097e-03 1.341881e-03 1.395693e-03 1.439004e-03 1.465543e-03 1.466897e-03 1.432192e-03 1.347967e-03 1.198418e-03 9.662178e-04 6.340678e-04 1.870557e-04 -3.843297e-04 -1.080964e-03 -1.892356e-03 -2.795312e-03 -3.754753e-03 -4.727009e-03 -5.665194e-03 -6.525534e-03 -7.273128e-03 -7.885712e-03 -8.354616e-03 -8.683029e-03 -8.882448e-03 -8.968574e-03 -8.957822e-03 -8.865096e-03 -8.702932e-03 -8.481674e-03 -8.210170e-03 -7.896540e-03 -7.548707e-03 -7.174631e-03 -6.782247e-03 -6.379250e-03 -5.972814e-03 -5.569342e-03 -5.174290e-03 -4.792084e-03 -4.426119e-03 -4.078816e-03 -3.751737e-03 -3.445707e-03 -3.160948e-03 -2.897211e-03 -2.653890e-03 -2.430124e-03 -2.224880e-03 -2.037025e-03
6.819568e-04 7.263500e-04 7.737599e-04 8.243670e-04 8.783493e-04 9.358714e-04 9.970655e-04 1.061998e-03 1.130618e-03 1.202667e-03 1.277551e-03 1.354136e-03 1.430459e-03 1.503317e-03 1.567719e-03 1.616204e-03 1.638041e-03 1.618436e-03 1.537919e-03 1.372249e-03 1.093254e-03 6.710704e-04 7.812336e-05 -7.052098e-04 -1.683946e-03 -2.842338e-03 -4.140266e-03 -5.514224e-03 -6.883951e-03 -8.164044e-03 -9.277924e-03 -1.017033e-02 -1.081474e-02 -1.121384e-02 -1.139348e-02 -1.139287e-02 -1.125425e-02 -1.101512e-02 -1.070417e-02 -1.034086e-02 -9.937385e-03 -9.501476e-03 -9.038951e-03 -8.555434e-03 -8.057126e-03 -7.550861e-03 -7.043750e-03 -6.542689e-03 -6.053904e-03 -5.582645e-03 -5.133025e-03 -4.707996e-03 -4.309426e-03 -3.938236e-03 -3.594563e-03 -3.277930e-03 -2.987398e-03 -2.721710e-03 -2.479400e-03 -2.258888e-03 -2.058548e-03
6.785671e-04 7.246722e-04 7.742395e-04 8.275659e-04 8.849818e-04 9.468516e-04 1.013569e-03 1.085541e-03 1.163149e-03 1.246680e-03 1.336194e-03 1.431303e-03 1.530814e-03 1.632174e-03 1.730657e-03 1.818229e-03 1.882075e-03 1.902870e-03 1.853037e-03 1.695532e-03 1.383991e-03 8.653849e-04 8.630440e-05 -9.965617e-04 -2.402559e-03 -4.112630e-03 -6.059108e-03 -8.125169e-03 -1.015761e-02 -1.199223e-02 -1.348569e-02 -1.454415e-02 -1.513914e-02 -1.530583e-02 -1.512558e-02 -1.470019e-02 -1.412708e-02 -1.348260e-02 -1.281588e-02 -1.215144e-02 -1.149670e-02 -1.085021e-02 -1.020820e-02 -9.568393e-03 -8.931480e-03 -8.300910e-03 -7.681944e-03 -7.080528e-03 -6.502358e-03 -5.952247e-03 -5.433803e-03 -4.949350e-03 -4.500012e-03 -4.085884e-03 -3.706244e-03 -3.359757e-03 -3.044668e-03 -2.758959e-03 -2.500475e-03 -2.267025e-03 -2.056448e-03
6.690950e-04 7.164767e-04 7.677728e-04 8.234204e-04 8.839411e-04 9.499614e-04 1.022234e-03 1.101657e-03 1.189276e-03 1.286269e-03 1.393858e-03 1.513131e-03 1.644680e-03 1.787947e-03 1.940143e-03 2.094545e-03 2.238008e-03 2.347600e-03 2.386546e-03 2.300144e-03 2.013159e-03 1.431125e-03 4.487248e-04 -1.031960e-03 -3.072985e-03 -5.666418e-03 -8.705275e-03 -1.197415e-02 -1.517169e-02 -1.796629e-02 -2.007120e-02 -2.131332e-02 -2.166999e-02 -2.126046e-02 -2.029785e-02 -1.902299e-02 -1.764559e-02 -1.631006e-02 -1.508961e-02 -1.400077e-02 -1.302621e-02 -1.213586e-02 -1.130111e-02 -1.050168e-02 -9.726938e-03 -8.974124e-03 -8.245584e-03 -7.546112e-03 -6.880978e-03 -6.254706e-03 -5.670488e-03 -5.130023e-03 -4.633631e-03 -4.180488e-03 -3.768901e-03 -3.396579e-03 -3.060863e-03 -2.758907e-03 -2.487820e-03 -2.244766e-03 -2.027036e-03
6.525789e-04 7.006277e-04 7.530159e-04 8.103388e-04 8.733423e-04 9.429731e-04 1.020443e-03 1.107304e-03 1.205540e-03 1.317651e-03 1.446708e-03 1.596333e-03 1.770488e-03 1.972922e-03 2.205999e-03 2.468516e-03 2.752002e-03 3.034941e-03 3.274583e-03 3.396719e-03 3.285367e-03 2.776876e-03 1.666010e-03 -2.666496e-04 -3.199389e-03 -7.190135e-03 -1.209514e-02 -1.752422e-02 -2.287215e-02 -2.744031e-02 -3.061830e-02 -3.205706e-02 -3.176049e-02 -3.005738e-02 -2.747142e-02 -2.455106e-02 -2.173028e-02 -1.926291e-02 -1.723100e-02 -1.559802e-02 -1.427130e-02 -1.315047e-02 -1.215425e-02 -1.122891e-02 -1.034577e-02 -9.494179e-03 -8.674193e-03 -7.890816e-03 -7.150208e-03 -6.457600e-03 -5.816402e-03 -5.228048e-03 -4.692221e-03 -4.207234e-03 -3.770432e-03 -3.378551e-03 -3.028008e-03 -2.715122e-03 -2.436269e-03 -2.187984e-03 -1.967026e-03
6.280050e-04 6.758972e-04 7.284752e-04 7.864959e-04 8.509452e-04 9.231266e-04 1.004786e-03 1.098275e-03 1.206777e-03 1.334574e-03 1.487380e-03 1.672677e-03 1.899968e-03 2.180762e-03 2.527880e-03 2.953447e-03 3.464460e-03 4.054442e-03 4.689321e-03 5.286162e-03 5.685523e-03 5.623377e-03 4.717506e-03 2.493531e-03 -1.520591e-03 -7.619675e-03 -1.570090e-02 -2.509504e-02 -3.457592e-02 -4.262010e-02 -4.785614e-02 -4.951679e-02 -4.768139e-02 -4.319541e-02 -3.731763e-02 -3.127766e-02 -2.594586e-02 -2.172139e-02 -1.861189e-02 -1.640109e-02 -1.480641e-02 -1.357833e-02 -1.253987e-02 -1.158663e-02 -1.066919e-02 -9.772711e-03 -8.900270e-03 -8.061849e-03 -7.268046e-03 -6.527158e-03 -5.844267e-03 -5.221380e-03 -4.658010e-03 -4.151856e-03 -3.699440e-03 -3.296617e-03 -2.938951e-03 -2.621993e-03 -2.341450e-03 -2.093296e-03 -1.873827e-03
5.943575e-04 6.410221e-04 6.925700e-04 7.498999e-04 8.142192e-04 8.871797e-04 9.710752e-04 1.069124e-03 1.185868e-03 1.327735e-03 1.503787e-03 1.726711e-03 2.014006e-03 2.389268e-03 2.883171e-03 3.533323e-03 4.381306e-03 5.463887e-03 6.793660e-03 8.322803e-03 9.884250e-03 1.111137e-02 1.135609e-02 9.659272e-03 4.864125e-03 -4.037952e-03 -1.733960e-02 -3.404601e-02 -5.169564e-02 -6.688331e-02 -7.639171e-02 -7.840570e-02 -7.318283e-02 -6.283927e-02 -5.038804e-02 -3.856728e-02 -2.905595e-02 -2.234058e-02 -1.806712e-02 -1.552603e-02 -1.401519e-02 -1.301037e-02 -1.219147e-02 -1.139939e-02 -1.057776e-02 -9.724541e-03 -8.860233e-03 -8.010043e-03 -7.195634e-03 -6.432366e-03 -5.729293e-03 -5.090280e-03 -4.515380e-03 -4.002098e-03 -3.546397e-03 -3.143442e-03 -2.788109e-03 -2.475320e-03 -2.200251e-03 -1.958436e-03 -1.745828e-03
5.506953e-04 5.947978e-04 6.437480e-04 6.985320e-04 7.605119e-04 8.316074e-04 9.145695e-04 1.013392e-03 1.133923e-03 1.284778e-03 1.478668e-03 1.734322e-03 2.079176e-03 2.552986e-03 3.212338e-03 4.135511e-03 5.425975e-03 7.210385e-03 9.622559e-03 1.275823e-02 1.657783e-02 2.073332e-02 2.431760e-02 2.561006e-02 2.203364e-02 1.067518e-02 -1.038123e-02 -4.025515e-02 -7.419455e-02 -1.044953e-01 -1.233937e-01 -1.263701e-01 -1.140284e-01 -9.158751e-02 -6.627166e-02 -4.413851e-02 -2.821132e-02 -1.859031e-02 -1.373732e-02 -1.176980e-02 -1.118507e-02 -1.104658e-02 -1.088731e-02 -1.053951e-02 -9.991125e-03 -9.293269e-03 -8.510802e-03 -7.700530e-03 -6.904454e-03 -6.150010e-03 -5.452844e-03 -4.820046e-03 -4.252955e-03 -3.749331e-03 -3.304898e-03 -2.914389e-03 -2.572221e-03 -2.272904e-03 -2.011274e-03 -1.782608e-03 -1.582669e-03
4.962537e-04 5.362091e-04 5.806533e-04 6.305670e-04 6.873401e-04 7.529870e-04 8.304821e-04 9.242816e-04 1.041135e-03 1.191347e-03 1.390737e-03 1.663650e-03 2.047558e-03 2.599951e-03 3.408383e-03 4.604440e-03 6.381556e-03 9.013930e-03 1.286712e-02 1.837662e-02 2.594510e-02 3.567342e-02 4.682066e-02 5.696556e-02 6.117030e-02 5.210640e-02 2.259156e-02 -2.917196e-02 -9.487301e-02 -1.571312e-01 -1.971181e-01 -2.034055e-01 -1.769701e-01 -1.303729e-01 -8.093828e-02 -4.186266e-02 -1.777002e-02 -6.494807e-03 -3.318820e-03 -4.010037e-03 -5.864526e-03 -7.552014e-03 -8.612929e-03 -9.022865e-03 -8.922462e-03 -8.481931e-03 -7.846682e-03 -7.123450e-03 -6.383252e-03 -5.669444e-03 -5.005895e-03 -4.403613e-03 -3.865581e-03 -3.390073e-03 -2.972826e-03 -2.608404e-03 -2.291031e-03 -2.015059e-03 -1.775226e-03 -1.566770e-03 -1.385463e-03
4.305641e-04 4.645879e-04 5.023395e-04 5.446629e-04 5.927893e-04 6.485596e-04 7.147818e-04 7.958057e-04 8.984494e-04 1.033500e-03 1.218144e-03 1.479916e-03 1.863085e-03 2.438982e-03 3.322496e-03 4.698011e-03 6.858966e-03 1.026490e-02 1.561536e-02 2.392357e-02 3.652921e-02 5.489426e-02 7.986207e-02 1.099035e-01 1.381108e-01 1.492694e-01 1.218592e-01 4.120932e-02 -8.155710e-02 -2.076735e-01 -2.931445e-01 -3.106814e-01 -2.597263e-01 -1.685647e-01 -7.867101e-02 -1.753348e-02 1.137965e-02 1.821504e-02 1.443023e-02 7.610447e-03 1.390428e-03 -3.067965e-03 -5.767486e-03 -7.106003e-03 -7.522495e-03 -7.373103e-03 -6.910424e-03 -6.299566e-03 -5.641814e-03 -4.995460e-03 -4.391320e-03 -3.843386e-03 -3.355778e-03 -2.927119e-03 -2.553223e-03 -2.228679e-03 -1.947771e-03 -1.704967e-03 -1.495170e-03 -1.313821e-03 -1.156911e-03
3.535773e-04 3.797805e-04 4.084982e-04 4.402807e-04 4.759707e-04 5.168950e-04 5.651814e-04 6.242880e-04 6.998877e-04 8.013540e-04 9.442665e-04 1.154656e-03 1.476226e-03 1.982684e-03 2.798803e-03 4.136345e-03 6.354826e-03 1.006253e-02 1.627882e-02 2.667795e-02 4.390735e-02 7.186377e-02 1.155012e-01 1.790467e-01 2.603915e-01 3.393480e-01 3.653952e-01 2.761244e-01 7.171196e-02 -1.577162e-01 -3.233787e-01 -3.771002e-01 -2.992211e-01 -1.419115e-01 -7.485227e-03 5.681263e-02 6.781843e-02 5.463362e-02 3.586737e-02 1.964992e-02 8.118208e-03 8.579093e-04 -3.254953e-03 -5.293735e-03 -6.066032e-03 -6.115267e-03 -5.783430e-03 -5.275508e-03 -4.709012e-03 -4.147869e-03 -3.624197e-03 -3.151804e-03 -2.734328e-03 -2.370051e-03 -2.054684e-03 -1.782932e-03 -1.549356e-03 -1.348801e-03 -1.176597e-03 -1.028626e-03 -9.013162e-04
2.657701e-04 2.822933e-04 2.996634e-04 3.179746e-04 3.374426e-04 3.585189e-04 3.820959e-04 4.098684e-04 4.449716e-04 4.931043e-04 5.645098e-04 6.774846e-04 8.646264e-04 1.184022e-03 1.739407e-03 2.716683e-03 4.450300e-03 7.543891e-03 1.308815e-02 2.304786e-02 4.092612e-02 7.283172e-02 1.289777e-01 2.251275e-01 3.815562e-01 6.095693e-01 8.547603e-01 9.104225e-01 6.684592e-01 4.206022e-01 2.286318e-01 5.038080e-02 6.757444e-02 2.497862e-01 2.857123e-01 2.119306e-01 1.380078e-01 8.427212e-02 4.772728e-02 2.423158e-02 1.003987e-02 2.010290e-03 -2.194474e-03 -4.148434e-03 -4.840293e-03 -4.861732e-03 -4.554058e-03 -4.107709e-03 -3.624961e-03 -3.157782e-03 -2.730075e-03 -2.350519e-03 -2.019859e-03 -1.734982e-03 -1.491162e-03 -1.283237e-03 -1.106221e-03 -9.555666e-04 -8.272713e-04 -7.178802e-04 -6.244493e-04
1.682143e-04 1.733887e-04 1.773440e-04 1.795811e-04 1.794849e-04 1.763242e-04 1.692784e-04 1.575213e-04 1.404189e-04 1.179495e-04 9.155060e-05 6.577934e-05 5.152750e-05 7.220576e-05 1.756335e-04 4.569510e-04 1.102946e-03 2.478171e-03 5.292758e-03 1.092963e-02 2.208097e-02 4.398311e-02 8.683915e-02 1.708781e-01 3.387189e-01 6.904026e-01 1.447284e+00 2.514134e+00 2.696102e+00 3.819652e+00 4.222858e+00 3.560800e+00 2.713797e+00 2.326547e+00 9.651882e-01 3.350312e-01 1.377116e-01 6.515329e-02 3.113074e-02 1.322775e-02 3.754779e-03 -1.005728e-03 -3.156660e-03 -3.913195e-03 -3.962948e-03 -3.683672e-03 -3.276087e-03 -2.842355e-03 -2.431060e-03 -2.062393e-03 -1.742014e-03 -1.468546e-03 -1.237552e-03 -1.043584e-03 -8.811937e-04 -7.453856e-04 -6.317837e-04 -5.366538e-04 -4.568592e-04 -3.897895e-04 -3.332851e-04
6.258849e-05 5.510082e-05 4.404450e-05 2.824464e-05 6.131957e-06 -2.438910e-05 -6.612751e-05 -1.228640e-04 -1.997057e-04 -3.035701e-04 -4.438443e-04 -6.332745e-04 -8.891256e-04 -1.234643e-03 -1.700712e-03 -2.327363e-03 -3.164083e-03 -4.266433e-03 -5.683389e-03 -7.423791e-03 -9.379969e-03 -1.117224e-02 -1.186428e-02 -9.459001e-03 4.516402e-04 3.271841e-02 1.841346e-01 2.266178e+00 6.307410e+01 7.176432e+01 7.197168e+01 7.171464e+01 6.419421e+01 2.597181e+00 8.509501e-02 -3.273624e-02 -2.867714e-02 -2.006371e-02 -1.475278e-02 -1.136300e-02 -8.895208e-03 -6.964607e-03 -5.428500e-03 -4.212757e-03 -3.259956e-03 -2.519302e-03 -1.946553e-03 -1.504747e-03 -1.164086e-03 -9.011299e-04 -6.977344e-04 -5.399901e-04 -4.172876e-04 -3.215511e-04 -2.466316e-04 -1.878403e-04 -1.415915e-04 -1.051345e-04 -7.635099e-05 -5.360310e-05 -3.561940e-05
-4.887591e-05 -6.984344e-05 -9.684430e-05 -1.317474e-04 -1.770833e-04 -2.363138e-04 -3.142280e-04 -4.175306e-04 -5.557311e-04 -7.425058e-04 -9.978201e-04 -1.351292e-03 -1.847622e-03 -2.555512e-03 -3.582624e-03 -5.101127e-03 -7.392221e-03 -1.092521e-02 -1.650053e-02 -2.551294e-02 -4.044457e-02 -6.580998e-02 -1.100471e-01 -1.896658e-01 -3.399644e-01 -6.477753e-01 -1.344179e+00 -2.676195e+00 -3.840146e+00 -6.009202e+00 -6.643836e+00 -6.054641e+00 -4.771744e+00 -3.228389e+00 -1.148308e+00 -4.140441e-01 -1.871766e-01 -9.982865e-02 -5.748679e-02 -3.406503e-02 -2.036219e-02 -1.216395e-02 -7.206840e-03 -4.189812e-03 -2.345565e-03 -1.216179e-03 -5.259810e-04 -1.075724e-04 1.416212e-04 2.850334e-04 3.622407e-04 3.981335e-04 4.084712e-04 4.032817e-04 3.889631e-04 3.695962e-04 3.477729e-04 3.251229e-04 3.026526e-04 2.809636e-04 2.603955e-04
-1.635172e-04 -1.981859e-04 -2.412851e-04 -2.953078e-04 -3.636359e-04 -4.509138e-04 -5.636046e-04 -7.108266e-04 -9.056335e-04 -1.167000e-03 -1.522955e-03 -2.015585e-03 -2.709191e-03 -3.703728e-03 -5.157334e-03 -7.324562e-03 -1.062194e-02 -1.574116e-02 -2.384437e-02 -3.689737e-02 -5.822114e-02 -9.334718e-02 -1.511700e-01 -2.449742e-01 -3.914998e-01 -6.012205e-01 -8.388110e-01 -9.608776e-01 -9.041250e-01 -8.609107e-01 -7.840923e-01 -6.329671e-01 -5.624760e-01 -5.480064e-01 -4.147315e-01 -2.673085e-01 -1.695301e-01 -1.075389e-01 -6.696694e-02 -4.050359e-02 -2.365285e-02 -1.319608e-02 -6.850567e-03 -3.077997e-03 -8.857253e-04 3.485253e-04 1.008082e-03 1.326718e-03 1.446170e-03 1.452022e-03 1.395719e-03 1.307971e-03 1.206902e-03 1.102989e-03 1.002086e-03 9.072534e-04 8.198911e-04 7.404230e-04 6.687192e-04 6.043520e-04 5.467500e-04
-2.784135e-04 -3.263759e-04 -3.849137e-04 -4.570075e-04 -5.466769e-04 -6.594127e-04 -8.028147e-04 -9.875474e-04 -1.228790e-03 -1.548462e-03 -1.978687e-03 -2.567248e-03 -3.386254e-03 -4.546078e-03 -6.217876e-03 -8.670088e-03 -1.232736e-02 -1.786419e-02 -2.634884e-02 -3.944870e-02 -5.967832e-02 -9.056720e-02 -1.363501e-01 -2.002129e-01 -2.793632e-01 -3.556553e-01 -3.874330e-01 -3.266321e-01 -1.753985e-01 -9.476753e-04 1.321208e-01 1.850304e-01 1.408981e-01 3.949443e-02 -4.562988e-02 -8.289415e-02 -8.369481e-02 -6.757719e-02 -4.784636e-02 -3.076242e-02 -1.808761e-02 -9.497643e-03 -4.028863e-03 -7.243652e-04 1.163700e-03 2.160533e-03 2.614099e-03 2.746906e-03 2.697850e-03 2.551979e-03 2.360393e-03 2.153094e-03 1.947118e-03 1.751623e-03 1.571044e-03 1.407040e-03 1.259683e-03 1.128186e-03 1.011340e-03 9.077632e-04 8.160586e-04
-3.905846e-04 -4.508345e-04 -5.234005e-04 -6.115673e-04 -7.197165e-04 -8.537631e-04 -1.021793e-03 -1.234999e-03 -1.509075e-03 -1.866302e-03 -2.338713e-03 -2.972899e-03 -3.837360e-03 -5.033735e-03 -6.713865e-03 -9.105312e-03 -1.254836e-02 -1.754644e-02 -2.482637e-02 -3.538800e-02 -5.048113e-02 -7.136177e-02 -9.854348e-02 -1.301578e-01 -1.593343e-01 -1.719710e-01 -1.491057e-01 -7.850764e-02 2.991405e-02 1.431256e-01 2.231291e-01 2.453794e-01 2.083546e-01 1.353021e-01 6.072458e-02 8.322554e-03 -1.749960e-02 -2.411187e-02 -2.085728e-02 -1.435655e-02 -8.017441e-03 -3.083747e-03 2.938478e-04 2.382091e-03 3.533227e-03 4.055764e-03 4.181921e-03 4.072970e-03 3.835257e-03 3.536160e-03 3.216799e-03 2.901187e-03 2.602485e-03 2.327134e-03 2.077529e-03 1.853710e-03 1.654421e-03 1.477762e-03 1.321576e-03 1.183677e-03 1.061976e-03
-4.971938e-04 -5.682148e-04 -6.527867e-04 -7.542978e-04 -8.771996e-04 -1.027403e-03 -1.212844e-03 -1.444292e-03 -1.736514e-03 -2.109963e-03 -2.593225e-03 -3.226561e-03 -4.066991e-03 -5.195492e-03 -6.726879e-03 -8.822662e-03 -1.170602e-02 -1.567512e-02 -2.110404e-02 -2.840714e-02 -3.791921e-02 -4.961446e-02 -6.257794e-02 -7.423050e-02 -7.962388e-02 -7.170243e-02 -4.377247e-02 5.728948e-03 6.909669e-02 1.303201e-01 1.718124e-01 1.824347e-01 1.622824e-01 1.221463e-01 7.753368e-02 4.080023e-02 1.695648e-02 4.822882e-03 5.592961e-04 4.201820e-04 1.849295e-03 3.476503e-03 4.735794e-03 5.495229e-03 5.811803e-03 5.799668e-03 5.571019e-03 5.215638e-03 4.798066e-03 4.361380e-03 3.932484e-03 3.526934e-03 3.152711e-03 2.812950e-03 2.507828e-03 2.235815e-03 1.994487e-03 1.781027e-03 1.592543e-03 1.426237e-03 1.279506e-03
-5.957263e-04 -6.756217e-04 -7.697532e-04 -8.814232e-04 -1.014889e-03 -1.175690e-03 -1.371092e-03 -1.610709e-03 -1.907355e-03 -2.278221e-03 -2.746474e-03 -3.343407e-03 -4.111237e-03 -5.106566e-03 -6.404243e-03 -8.100759e-03 -1.031499e-02 -1.318165e-02 -1.682855e-02 -2.132287e-02 -2.656539e-02 -3.211329e-02 -3.693709e-02 -3.919203e-02 -3.621543e-02 -2.507559e-02 -3.878588e-03 2.652303e-02 6.152531e-02 9.362378e-02 1.151130e-01 1.212358e-01 1.120719e-01 9.220180e-02 6.836655e-02 4.651345e-02 2.993616e-02 1.919302e-02 1.316710e-02 1.024007e-02 9.011181e-03 8.535439e-03 8.284263e-03 8.015426e-03 7.650389e-03 7.189323e-03 6.661859e-03 6.102531e-03 5.540606e-03 4.997268e-03 4.486053e-03 4.014400e-03 3.585347e-03 3.198978e-03 2.853541e-03 2.546240e-03 2.273779e-03 2.032714e-03 1.819671e-03 1.631469e-03 1.465184e-03
-6.841247e-04 -7.707675e-04 -8.717934e-04 -9.902622e-04 -1.130032e-03 -1.296000e-03 -1.494416e-03 -1.733301e-03 -2.022978e-03 -2.376763e-03 -2.811799e-03 -3.350050e-03 -4.019326e-03 -4.854127e-03 -5.895753e-03 -7.190622e-03 -8.784893e-03 -1.071219e-02 -1.296970e-02 -1.547686e-02 -1.801216e-02 -2.013156e-02 -2.109113e-02 -1.982964e-02 -1.509957e-02 -5.828893e-03 8.305331e-03 2.630851e-02 4.568616e-02 6.294508e-02 7.469668e-02 7.887001e-02 7.542830e-02 6.623795e-02 5.419135e-02 4.207714e-02 3.176877e-02 2.401074e-02 1.868404e-02 1.523903e-02 1.304896e-02 1.159884e-02 1.053866e-02 9.663403e-03 8.869788e-03 8.115541e-03 7.390062e-03 6.696358e-03 6.041292e-03 5.431054e-03 4.869541e-03 4.358180e-03 3.896331e-03 3.481866e-03 3.111709e-03 2.782271e-03 2.489773e-03 2.230463e-03 2.000760e-03 1.797328e-03 1.617124e-03
-7.608718e-04 -8.520546e-04 -9.572851e-04 -1.079268e-03 -1.221328e-03 -1.387565e-03 -1.583046e-03 -1.814038e-03 -2.088273e-03 -2.415244e-03 -2.806486e-03 -3.275763e-03 -3.839010e-03 -4.513748e-03 -5.317483e-03 -6.264307e-03 -7.358551e-03 -8.583925e-03 -9.886519e-03 -1.115071e-02 -1.216963e-02 -1.261742e-02 -1.203950e-02 -9.886631e-03 -5.621217e-03 1.094826e-03 1.016803e-02 2.089606e-02 3.197185e-02 4.174270e-02 4.866828e-02 5.179581e-02 5.103851e-02 4.713434e-02 4.132064e-02 3.489494e-02 2.886127e-02 2.377805e-02 1.979786e-02 1.680952e-02 1.458838e-02 1.290219e-02 1.156341e-02 1.044221e-02 9.458873e-03 8.569514e-03 7.752590e-03 6.998781e-03 6.304489e-03 5.668125e-03 5.088272e-03 4.562948e-03 4.089452e-03 3.664490e-03 3.284378e-03 2.945252e-03 2.643245e-03 2.374613e-03 2.135821e-03 1.923594e-03 1.734941e-03
-8.250205e-04 -9.185893e-04 -1.025472e-03 -1.147954e-03 -1.288763e-03 -1.451150e-03 -1.638983e-03 -1.856831e-03 -2.110044e-03 -2.404772e-03 -2.747905e-03 -3.146814e-03 -3.608772e-03 -4.139832e-03 -4.742832e-03 -5.414110e-03 -6.138395e-03 -6.881399e-03 -7.579977e-03 -8.130606e-03 -8.378711e-03 -8.114069e-03 -7.080513e-03 -5.009595e-03 -1.684402e-03 2.971682e-03 8.804965e-03 1.538090e-02 2.201460e-02 2.789827e-02 3.229610e-02 3.473719e-02 3.512971e-02 3.375184e-02 3.113106e-02 2.787026e-02 2.449271e-02 2.135442e-02 1.863173e-02 1.636035e-02 1.449249e-02 1.294724e-02 1.164337e-02 1.051499e-02 9.515284e-03 8.614080e-03 7.793294e-03 7.042529e-03 6.355690e-03 5.728751e-03 5.158443e-03 4.641600e-03 4.174897e-03 3.754815e-03 3.377706e-03 3.039887e-03 2.737742e-03 2.467796e-03 2.226773e-03 2.011632e-03 1.819579e-03
-8.761755e-04 -9.701364e-04 -1.076379e-03 -1.196746e-03 -1.333363e-03 -1.488663e-03 -1.665402e-03 -1.866655e-03 -2.095759e-03 -2.356196e-03 -2.651344e-03 -2.984049e-03 -3.355893e-03 -3.766053e-03 -4.209557e-03 -4.674777e-03 -5.140016e-03 -5.569198e-03 -5.907030e-03 -6.074586e-03 -5.967163e-03 -5.457261e-03 -4.406135e-03 -2.686759e-03 -2.181607e-04 2.994346e-03 6.825059e-03 1.101610e-02 1.520146e-02 1.896893e-02 2.194587e-02 2.388139e-02 2.469629e-02 2.448410e-02 2.346629e-02 2.192224e-02 2.012067e-02 1.827288e-02 1.651510e-02 1.491463e-02 1.348872e-02 1.222581e-02 1.110249e-02 1.009422e-02 9.180485e-03 8.346198e-03 7.581068e-03 6.878314e-03 6.233336e-03 5.642685e-03 5.103389e-03 4.612565e-03 4.167256e-03 3.764390e-03 3.400815e-03 3.073358e-03 2.778896e-03 2.514411e-03 2.277035e-03 2.064081e-03 1.873062e-03
-9.144390e-04 -1.007034e-03 -1.110679e-03 -1.226785e-03 -1.356916e-03 -1.502767e-03 -1.666139e-03 -1.848871e-03 -2.052724e-03 -2.279196e-03 -2.529219e-03 -2.802708e-03 -3.097886e-03 -3.410343e-03 -3.731747e-03 -4.048173e-03 -4.338095e-03 -4.570202e-03 -4.701430e-03 -4.675933e-03 -4.426039e-03 -3.876537e-03 -2.953487e-03 -1.598042e-03 2.159084e-04 2.463741e-03 5.057413e-03 7.844452e-03 1.062294e-02 1.317198e-02 1.529089e-02 1.683628e-02 1.774541e-02 1.803954e-02 1.780758e-02 1.717756e-02 1.628589e-02 1.525337e-02 1.417196e-02 1.310225e-02 1.207807e-02 1.111420e-02 1.021401e-02 9.375377e-03 8.594363e-03 7.867122e-03 7.190555e-03 6.562316e-03 5.980539e-03 5.443553e-03 4.949650e-03 4.496962e-03 4.083417e-03 3.706753e-03 3.364567e-03 3.054379e-03 2.773691e-03 2.520045e-03 2.291068e-03 2.084500e-03 1.898220e-03
-9.403308e-04 -1.030084e-03 -1.129545e-03 -1.239735e-03 -1.361715e-03 -1.496557e-03 -1.645282e-03 -1.808769e-03 -1.987620e-03 -2.181956e-03 -2.391135e-03 -2.613353e-03 -2.845108e-03 -3.080514e-03 -3.310437e-03 -3.521498e-03 -3.695017e-03 -3.806081e-03 -3.823011e-03 -3.707684e-03 -3.417231e-03 -2.907644e-03 -2.139630e-03 -1.086501e-03 2.568784e-04 1.866015e-03 3.682177e-03 5.613766e-03 7.545011e-03 9.351280e-03 1.091787e-02 1.215765e-02 1.302285e-02 1.350818e-02 1.364529e-02 1.349106e-02 1.311371e-02 1.258059e-02 1.194992e-02 1.126697e-02 1.056397e-02 9.862209e-03 9.174951e-03 8.510143e-03 7.872533e-03 7.265039e-03 6.689529e-03 6.147199e-03 5.638720e-03 5.164289e-03 4.723653e-03 4.316138e-03 3.940703e-03 3.596002e-03 3.280454e-03 2.992320e-03 2.729767e-03 2.490928e-03 2.273947e-03 2.077017e-03 1.898409e-03
-9.546977e-04 -1.040431e-03 -1.134502e-03 -1.237584e-03 -1.350322e-03 -1.473280e-03 -1.606877e-03 -1.751287e-03 -1.906306e-03 -2.071170e-03 -2.244316e-03 -2.423068e-03 -2.603247e-03 -2.778713e-03 -2.940832e-03 -3.077939e-03 -3.174861e-03 -3.212632e-03 -3.168599e-03 -3.017129e-03 -2.731189e-03 -2.284953e-03 -1.657461e-03 -8.370566e-04 1.740580e-04 1.356153e-03 2.670370e-03 4.060195e-03 5.456424e-03 6.785098e-03 7.976945e-03 8.976283e-03 9.747338e-03 1.027671e-02 1.057177e-02 1.065594e-02 1.056239e-02 1.032792e-02 9.987967e-03 9.573670e-03 9.110516e-03 8.618379e-03 8.112277e-03 7.603380e-03 7.099983e-03 6.608273e-03 6.132874e-03 5.677214e-03 5.243759e-03 4.834166e-03 4.449409e-03 4.089874e-03 3.755462e-03 3.445672e-03 3.159693e-03 2.896482e-03 2.654836e-03 2.433448e-03 2.230962e-03 2.046012e-03 1.877250e-03
-9.586186e-04 -1.039450e-03 -1.127277e-03 -1.222487e-03 -1.325385e-03 -1.436145e-03 -1.554741e-03 -1.680856e-03 -1.813769e-03 -1.952197e-03 -2.094114e-03 -2.236520e-03 -2.375181e-03 -2.504333e-03 -2.616395e-03 -2.701707e-03 -2.748372e-03 -2.742283e-03 -2.667436e-03 -2.506662e-03 -2.242845e-03 -1.860701e-03 -1.349010e-03 -7.031192e-04 7.270916e-05 9.635924e-04 1.943533e-03 2.976540e-03 4.019474e-03 5.026318e-03 5.953157e-03 6.762928e-03 7.428995e-03 7.936946e-03 8.284417e-03 8.479271e-03 8.536762e-03 8.476426e-03 8.319286e-03 8.085768e-03 7.794399e-03 7.461216e-03 7.099661e-03 6.720779e-03 6.333530e-03 5.945118e-03 5.561284e-03 5.186539e-03 4.824355e-03 4.477313e-03 4.147237e-03 3.835305e-03 3.542153e-03 3.267971e-03 3.012590e-03 2.775562e-03 2.556228e-03 2.353780e-03 2.167310e-03 1.995851e-03 1.838412e-03
-9.533171e-04 -1.028639e-03 -1.109691e-03 -1.196628e-03 -1.289494e-03 -1.388173e-03 -1.492332e-03 -1.601336e-03 -1.714158e-03 -1.829260e-03 -1.944454e-03 -2.056750e-03 -2.162185e-03 -2.255655e-03 -2.330772e-03 -2.379767e-03 -2.393494e-03 -2.361572e-03 -2.272741e-03 -2.115466e-03 -1.878829e-03 -1.553699e-03 -1.134096e-03 -6.186121e-04 -1.165562e-05 6.757448e-04 1.425839e-03 2.214925e-03 3.015020e-03 3.796244e-03 4.529576e-03 5.189521e-03 5.756236e-03 6.216792e-03 6.565454e-03 6.803066e-03 6.935797e-03 6.973582e-03 6.928555e-03 6.813715e-03 6.641912e-03 6.425191e-03 6.174426e-03 5.899172e-03 5.607662e-03 5.306872e-03 5.002623e-03 4.699697e-03 4.401942e-03 4.112386e-03 3.833331e-03 3.566457e-03 3.312903e-03 3.073364e-03 2.848157e-03 2.637304e-03 2.440589e-03 2.257615e-03 2.087855e-03 1.930688e-03 1.785435e-03
-9.400831e-04 -1.009533e-03 -1.083552e-03 -1.162115e-03 -1.245075e-03 -1.332114e-03 -1.422696e-03 -1.516002e-03 -1.610855e-03 -1.705635e-03 -1.798183e-03 -1.885699e-03 -1.964645e-03 -2.030655e-03 -2.078479e-03 -2.101977e-03 -2.094188e-03 -2.047510e-03 -1.954012e-03 -1.805903e-03 -1.596163e-03 -1.319300e-03 -9.721986e-04 -5.549327e-04 -7.144430e-05 4.700730e-04 1.057202e-03 1.673821e-03 2.301102e-03 2.918905e-03 3.507372e-03 4.048491e-03 4.527414e-03 4.933336e-03 5.259869e-03 5.504910e-03 5.670119e-03 5.760144e-03 5.781759e-03 5.743027e-03 5.652596e-03 5.519148e-03 5.351006e-03 5.155890e-03 4.940772e-03 4.711819e-03 4.474377e-03 4.232999e-03 3.991490e-03 3.752962e-03 3.519902e-03 3.294236e-03 3.077402e-03 2.870417e-03 2.673937e-03 2.488326e-03 2.313703e-03 2.149996e-03 1.996981e-03 1.854323e-03 1.721606e-03
-9.202094e-04 -9.836328e-04 -1.050587e-03 -1.120915e-03 -1.194333e-03 -1.270393e-03 -1.348441e-03 -1.427569e-03 -1.506557e-03 -1.583815e-03 -1.657320e-03 -1.724553e-03 -1.782445e-03 -1.827344e-03 -1.855003e-03 -1.860617e-03 -1.838919e-03 -1.784345e-03 -1.691295e-03 -1.554476e-03 -1.369345e-03 -1.132603e-03 -8.427213e-04 -5.004215e-04 -1.090506e-04 3.252341e-04 7.935287e-04 1.284530e-03 1.785158e-03 2.281394e-03 2.759247e-03 3.205708e-03 3.609596e-03 3.962170e-03 4.257468e-03 4.492364e-03 4.666376e-03 4.781292e-03 4.840693e-03 4.849453e-03 4.813261e-03 4.738208e-03 4.630459e-03 4.495997e-03 4.340457e-03 4.169002e-03 3.986266e-03 3.796320e-03 3.602674e-03 3.408297e-03 3.215645e-03 3.026707e-03 2.843046e-03 2.665856e-03 2.496002e-03 2.334074e-03 2.180431e-03 2.035236e-03 1.898503e-03 1.770119e-03 1.649880e-03
-8.949415e-04 -9.523549e-04 -1.012390e-03 -1.074798e-03 -1.139206e-03 -1.205091e-03 -1.271742e-03 -1.338230e-03 -1.403363e-03 -1.465646e-03 -1.523247e-03 -1.573957e-03 -1.615169e-03 -1.643869e-03 -1.656659e-03 -1.649802e-03 -1.619322e-03 -1.561144e-03 -1.471301e-03 -1.346182e-03 -1.182841e-03 -9.793183e-04 -7.349753e-04 -4.507816e-04 -1.295257e-04 2.240970e-04 6.035504e-04 1.000694e-03 1.406183e-03 1.809989e-03 2.202012e-03 2.572682e-03 2.913515e-03 3.217543e-03 3.479591e-03 3.696391e-03 3.866534e-03 3.990301e-03 4.069406e-03 4.106693e-03 4.105828e-03 4.071003e-03 4.006683e-03 3.917388e-03 3.807533e-03 3.681299e-03 3.542553e-03 3.394789e-03 3.241105e-03 3.084193e-03 2.926352e-03 2.769501e-03 2.615211e-03 2.464737e-03 2.319049e-03 2.178872e-03 2.044716e-03 1.916913e-03 1.795643e-03 1.680964e-03 1.572835e-03
-8.654421e-04 -9.169962e-04 -9.703922e-04 -1.025321e-03 -1.081360e-03 -1.137951e-03 -1.194371e-03 -1.249715e-03 -1.302860e-03 -1.352444e-03 -1.396845e-03 -1.434161e-03 -1.462208e-03 -1.478526e-03 -1.480412e-03 -1.464971e-03 -1.429205e-03 -1.370128e-03 -1.284921e-03 -1.171117e-03 -1.026811e-03 -8.508744e-04 -6.431676e-04 -4.047166e-04 -1.378323e-04 1.538503e-04 4.654310e-04 7.909083e-04 1.123441e-03 1.455693e-03 1.780218e-03 2.089864e-03 2.378141e-03 2.639529e-03 2.869690e-03 3.065586e-03 3.225498e-03 3.348954e-03 3.436593e-03 3.489990e-03 3.511451e-03 3.503815e-03 3.470264e-03 3.414153e-03 3.338873e-03 3.247734e-03 3.143878e-03 3.030224e-03 2.909423e-03 2.783835e-03 2.655529e-03 2.526280e-03 2.397585e-03 2.270680e-03 2.146564e-03 2.026024e-03 1.909658e-03 1.797900e-03 1.691045e-03 1.589273e-03 1.492663e-03
-8.327676e-04 -8.787133e-04 -9.258447e-04 -9.738185e-04 -1.022189e-03 -1.070393e-03 -1.117729e-03 -1.163341e-03 -1.206200e-03 -1.245093e-03 -1.278605e-03 -1.305122e-03 -1.322831e-03 -1.329740e-03 -1.323708e-03 -1.302499e-03 -1.263854e-03 -1.205582e-03 -1.125679e-03 -1.022463e-03 -8.947132e-04 -7.418211e-04 -5.639236e-04 -3.620130e-04 -1.380051e-04 1.052463e-04 3.639989e-04 6.337374e-04 9.093516e-04 1.185365e-03 1.456194e-03 1.716419e-03 1.961035e-03 2.185671e-03 2.386755e-03 2.561615e-03 2.708520e-03 2.826659e-03 2.916073e-03 2.977550e-03 3.012498e-03 3.022810e-03 3.010722e-03 2.978696e-03 2.929297e-03 2.865103e-03 2.788627e-03 2.702257e-03 2.608212e-03 2.508513e-03 2.404970e-03 2.299175e-03 2.192504e-03 2.086125e-03 1.981011e-03 1.877958e-03 1.777601e-03 1.680431e-03 1.586813e-03 1.497007e-03 1.411179e-03
-7.978552e-04 -8.385140e-04 -8.798163e-04 -9.214042e-04 -9.628310e-04 -1.003548e-03 -1.042893e-03 -1.080079e-03 -1.114180e-03 -1.144130e-03 -1.168715e-03 -1.186575e-03 -1.196219e-03 -1.196041e-03 -1.184352e-03 -1.159428e-03 -1.119567e-03 -1.063163e-03 -9.887924e-04 -8.953132e-04 -7.819621e-04 -6.484554e-04 -4.950766e-04 -3.227442e-04 -1.330509e-04 7.173457e-05 2.887080e-04 5.144129e-04 7.449646e-04 9.762068e-04 1.203889e-03 1.423853e-03 1.632206e-03 1.825483e-03 2.000765e-03 2.155770e-03 2.288891e-03 2.399201e-03 2.486425e-03 2.550874e-03 2.593367e-03 2.615141e-03 2.617753e-03 2.602987e-03 2.572766e-03 2.529077e-03 2.473901e-03 2.409166e-03 2.336700e-03 2.258203e-03 2.175228e-03 2.089171e-03 2.001262e-03 1.912572e-03 1.824016e-03 1.736363e-03 1.650249e-03 1.566184e-03 1.484572e-03 1.405719e-03 1.329849e-03
-7.615184e-04 -7.972573e-04 -8.331999e-04 -8.689888e-04 -9.041902e-04 -9.382851e-04 -9.706614e-04 -1.000607e-03 -1.027302e-03 -1.049823e-03 -1.067134e-03 -1.078102e-03 -1.081506e-03 -1.076057e-03 -1.060427e-03 -1.033287e-03 -9.933575e-04 -9.394619e-04 -8.705939e-04 -7.859856e-04 -6.851791e-04 -5.680931e-04 -4.350810e-04 -2.869729e-04 -1.250979e-04 4.872098e-05 2.321986e-04 4.226495e-04 6.170761e-04 8.122781e-04 1.004977e-03 1.191946e-03 1.370136e-03 1.536787e-03 1.689526e-03 1.826429e-03 1.946066e-03 2.047515e-03 2.130345e-03 2.194585e-03 2.240676e-03 2.269404e-03 2.281840e-03 2.279266e-03 2.263113e-03 2.234898e-03 2.196170e-03 2.148469e-03 2.093283e-03 2.032024e-03 1.966005e-03 1.896428e-03 1.824374e-03 1.750801e-03 1.676548e-03 1.602334e-03 1.528771e-03 1.456365e-03 1.385530e-03 1.316598e-03 1.249825e-03
-7.244491e-04 -7.556596e-04 -7.867245e-04 -8.172971e-04 -8.469665e-04 -8.752514e-04 -9.015954e-04 -9.253633e-04 -9.458390e-04 -9.622260e-04 -9.736520e-04 -9.791763e-04 -9.778038e-04 -9.685031e-04 -9.502323e-04 -9.219705e-04 -8.827559e-04 -8.317297e-04 -7.681844e-04 -6.916141e-04 -6.017643e-04 -4.986776e-04 -3.827321e-04 -2.546678e-04 -1.155975e-04 3.299971e-05 1.893046e-04 3.512040e-04 5.163544e-04 6.822609e-04 8.463650e-04 1.006138e-03 1.159171e-03 1.303258e-03 1.436468e-03 1.557194e-03 1.664195e-03 1.756604e-03 1.833935e-03 1.896055e-03 1.943163e-03 1.975742e-03 1.994516e-03 2.000398e-03 1.994447e-03 1.977813e-03 1.951700e-03 1.917328e-03 1.875898e-03 1.828571e-03 1.776445e-03 1.720542e-03 1.661798e-03 1.601057e-03 1.539070e-03 1.476497e-03 1.413908e-03 1.351789e-03 1.290549e-03 1.230523e-03 1.171984e-03
-6.872233e-04 -7.143053e-04 -7.409705e-04 -7.668901e-04 -7.916817e-04 -8.149063e-04 -8.360647e-04 -8.545968e-04 -8.698815e-04 -8.812395e-04 -8.879387e-04 -8.892027e-04 -8.842235e-04 -8.721787e-04 -8.522525e-04 -8.236616e-04 -7.856857e-04 -7.377005e-04 -6.792141e-04 -6.099032e-04 -5.296485e-04 -4.385660e-04 -3.370325e-04 -2.257012e-04 -1.055077e-04 2.233829e-05 1.563736e-04 2.949168e-04 4.361151e-04 5.780014e-04 7.185587e-04 8.557869e-04 9.877690e-04 1.112733e-03 1.229103e-03 1.335546e-03 1.430993e-03 1.514665e-03 1.586066e-03 1.644983e-03 1.691461e-03 1.725778e-03 1.748416e-03 1.760018e-03 1.761362e-03 1.753317e-03 1.736813e-03 1.712812e-03 1.682276e-03 1.646154e-03 1.605355e-03 1.560740e-03 1.513110e-03 1.463198e-03 1.411670e-03 1.359117e-03 1.306063e-03 1.252961e-03 1.200200e-03 1.148112e-03 1.096969e-03
-6.503109e-04 -6.736601e-04 -6.963877e-04 -7.181870e-04 -7.387078e-04 -7.575541e-04 -7.742830e-04 -7.884050e-04 -7.993855e-04 -8.066487e-04 -8.095832e-04 -8.075508e-04 -7.998979e-04 -7.859701e-04 -7.651301e-04 -7.367787e-04 -7.003782e-04 -6.554783e-04 -6.017423e-04 -5.389745e-04 -4.671443e-04 -3.864083e-04 -2.971270e-04 -1.998741e-04 -9.543861e-05 1.518276e-05 1.308029e-04 2.500707e-04 3.715066e-04 4.935446e-04 6.145793e-04 7.330154e-04 8.473165e-04 9.560507e-04 1.057931e-03 1.151849e-03 1.236895e-03 1.312379e-03 1.377829e-03 1.432993e-03 1.477824e-03 1.512465e-03 1.537226e-03 1.552557e-03 1.559024e-03 1.557280e-03 1.548042e-03 1.532064e-03 1.510115e-03 1.482964e-03 1.451361e-03 1.416024e-03 1.377634e-03 1.336821e-03 1.294167e-03 1.250197e-03 1.205381e-03 1.160137e-03 1.114829e-03 1.069770e-03 1.025228e-03
-6.140865e-04 -6.340851e-04 -6.533129e-04 -6.714878e-04 -6.882926e-04 -7.033738e-04 -7.163418e-04 -7.267719e-04 -7.342068e-04 -7.381610e-04 -7.381261e-04 -7.335792e-04 -7.239931e-04 -7.088486e-04 -6.876490e-04 -6.599374e-04 -6.253146e-04 -5.834589e-04 -5.341459e-04 -4.772682e-04 -4.128523e-04 -3.410746e-04 -2.622712e-04 -1.769442e-04 -8.576142e-05 1.045101e-05 1.107222e-04 2.139572e-04 3.189640e-04 4.244846e-04 5.292305e-04 6.319192e-04 7.313108e-04 8.262423e-04 9.156583e-04 9.986364e-04 1.074407e-03 1.142365e-03 1.202077e-03 1.253280e-03 1.295874e-03 1.329912e-03 1.355586e-03 1.373204e-03 1.383177e-03 1.385994e-03 1.382204e-03 1.372397e-03 1.357185e-03 1.337188e-03 1.313022e-03 1.285284e-03 1.254546e-03 1.221349e-03 1.186194e-03 1.149544e-03 1.111817e-03 1.073390e-03 1.034596e-03 9.957310e-04 9.570478e-04
-5.788403e-04 -5.958511e-04 -6.119875e-04 -6.269931e-04 -6.405833e-04 -6.524452e-04 -6.622384e-04 -6.695968e-04 -6.741313e-04 -6.754340e-04 -6.730839e-04 -6.666539e-04 -6.557199e-04 -6.398707e-04 -6.187209e-04 -5.919231e-04 -5.591832e-04 -5.202749e-04 -4.750545e-04 -4.234751e-04 -3.655992e-04 -3.016089e-04 -2.318130e-04 -1.566498e-04 -7.668623e-05 7.388962e-06 9.477624e-05 1.845815e-04 2.758364e-04 3.675224e-04 4.585973e-04 5.480224e-04 6.347906e-04 7.179521e-04 7.966379e-04 8.700799e-04 9.376266e-04 9.987534e-04 1.053069e-03 1.100314e-03 1.140364e-03 1.173212e-03 1.198969e-03 1.217841e-03 1.230124e-03 1.236182e-03 1.236434e-03 1.231340e-03 1.221387e-03 1.207073e-03 1.188901e-03 1.167366e-03 1.142947e-03 1.116103e-03 1.087266e-03 1.056836e-03 1.025185e-03 9.926474e-04 9.595277e-04 9.260954e-04 8.925886e-04
-5.447906e-04 -5.591523e-04 -5.725733e-04 -5.848227e-04 -5.956470e-04 -6.047713e-04 -6.118999e-04 -6.167187e-04 -6.188981e-04 -6.180969e-04 -6.139674e-04 -6.061617e-04 -5.943395e-04 -5.781763e-04 -5.573736e-04 -5.316692e-04 -5.008483e-04 -4.647552e-04 -4.233039e-04 -3.764888e-04 -3.243934e-04 -2.671974e-04 -2.051810e-04 -1.387267e-04 -6.831702e-05 5.470868e-06 8.197435e-05 1.604582e-04 2.401301e-04 3.201594e-04 3.996968e-04 4.778955e-04 5.539324e-04 6.270274e-04 6.964623e-04 7.615959e-04 8.218765e-04 8.768513e-04 9.261713e-04 9.695930e-04 1.006977e-03 1.038284e-03 1.063566e-03 1.082959e-03 1.096672e-03 1.104974e-03 1.108184e-03 1.106662e-03 1.100791e-03 1.090973e-03 1.077616e-03 1.061130e-03 1.041914e-03 1.020355e-03 9.968235e-04 9.716655e-04 9.452052e-04 9.177406e-04 8.895438e-04 8.608600e-04 8.319086e-04
-5.120936e-04 -5.241190e-04 -5.351673e-04 -5.450318e-04 -5.534886e-04 -5.602972e-04 -5.652023e-04 -5.679357e-04 -5.682189e-04 -5.657675e-04 -5.602952e-04 -5.515195e-04 -5.391678e-04 -5.229849e-04 -5.027408e-04 -4.782388e-04 -4.493243e-04 -4.158935e-04 -3.779015e-04 -3.353700e-04 -2.883938e-04 -2.371448e-04 -1.818757e-04 -1.229199e-04 -6.068930e-05 4.330100e-06 7.158608e-05 1.404701e-04 2.103298e-04 2.804829e-04 3.502328e-04 4.188848e-04 4.857619e-04 5.502204e-04 6.116639e-04 6.695555e-04 7.234282e-04 7.728915e-04 8.176371e-04 8.574404e-04 8.921598e-04 9.217347e-04 9.461798e-04 9.655791e-04 9.800779e-04 9.898749e-04 9.952125e-04 9.963683e-04 9.936464e-04 9.873686e-04 9.778672e-04 9.654781e-04 9.505345e-04 9.333623e-04 9.142756e-04 8.935733e-04 8.715371e-04 8.484292e-04 8.244914e-04 7.999447e-04 7.749892e-04
-4.808546e-04 -4.908296e-04 -4.998143e-04 -5.076252e-04 -5.140654e-04 -5.189259e-04 -5.219869e-04 -5.230201e-04 -5.217914e-04 -5.180641e-04 -5.116032e-04 -5.021797e-04 -4.895762e-04 -4.735926e-04 -4.540525e-04 -4.308097e-04 -4.037551e-04 -3.728231e-04 -3.379977e-04 -2.993183e-04 -2.568838e-04 -2.108560e-04 -1.614613e-04 -1.089904e-04 -5.379592e-05 3.711175e-06 6.306821e-05 1.237687e-04 1.852719e-04 2.470141e-04 3.084205e-04 3.689175e-04 4.279453e-04 4.849700e-04 5.394942e-04 5.910671e-04 6.392922e-04 6.838337e-04 7.244204e-04 7.608480e-04 7.929790e-04 8.207413e-04 8.441248e-04 8.631767e-04 8.779963e-04 8.887282e-04 8.955555e-04 8.986932e-04 8.983810e-04 8.948767e-04 8.884498e-04 8.793761e-04 8.679325e-04 8.543922e-04 8.390218e-04 8.220776e-04 8.038031e-04 7.844279e-04 7.641657e-04 7.432140e-04 7.217535e-04
