4.191990e-04 4.292337e-04 4.387858e-04 4.477362e-04 4.559536e-04 4.632942e-04 4.696018e-04 4.747082e-04 4.784337e-04 4.805883e-04 4.809731e-04 4.793821e-04 4.756056e-04 4.694327e-04 4.606555e-04 4.490739e-04 4.345002e-04 4.167652e-04 3.957237e-04 3.712616e-04 3.433012e-04 3.118080e-04 2.767957e-04 2.383317e-04 1.965400e-04 1.516039e-04 1.037669e-04 5.333145e-05 6.557889e-07 -5.385061e-05 -1.097340e-04 -1.665046e-04 -2.236467e-04 -2.806296e-04 -3.369188e-04 -3.919881e-04 -4.453309e-04 -4.964713e-04 -5.449733e-04 -5.904493e-04 -6.325666e-04 -6.710522e-04 -7.056950e-04 -7.363473e-04 -7.629232e-04 -7.853967e-04 -8.037972e-04 -8.182049e-04 -8.287450e-04 -8.355808e-04 -8.389081e-04 -8.389474e-04 -8.359385e-04 -8.301337e-04 -8.217925e-04 -8.111768e-04 -7.985460e-04 -7.841538e-04 -7.682445e-04 -7.510515e-04 -7.327943e-04
4.449857e-04 4.565642e-04 4.676891e-04 4.782296e-04 4.880401e-04 4.969601e-04 5.048134e-04 5.114086e-04 5.165394e-04 5.199856e-04 5.215148e-04 5.208842e-04 5.178439e-04 5.121405e-04 5.035216e-04 4.917412e-04 4.765661e-04 4.577826e-04 4.352042e-04 4.086794e-04 3.780999e-04 3.434084e-04 3.046061e-04 2.617588e-04 2.150022e-04 1.645453e-04 1.106716e-04 5.373795e-05 -5.828881e-06 -6.753829e-05 -1.308444e-04 -1.951570e-04 -2.598538e-04 -3.242949e-04 -3.878373e-04 -4.498500e-04 -5.097286e-04 -5.669091e-04 -6.208796e-04 -6.711903e-04 -7.174615e-04 -7.593889e-04 -7.967458e-04 -8.293837e-04 -8.572303e-04 -8.802855e-04 -8.986154e-04 -9.123457e-04 -9.216540e-04 -9.267608e-04 -9.279219e-04 -9.254192e-04 -9.195533e-04 -9.106358e-04 -8.989826e-04 -8.849085e-04 -8.687214e-04 -8.507189e-04 -8.311849e-04 -8.103866e-04 -7.885734e-04
4.721268e-04 4.854383e-04 4.983396e-04 5.106882e-04 5.223235e-04 5.330667e-04 5.427199e-04 5.510659e-04 5.578683e-04 5.628724e-04 5.658069e-04 5.663858e-04 5.643116e-04 5.592797e-04 5.509835e-04 5.391211e-04 5.234024e-04 5.035579e-04 4.793481e-04 4.505737e-04 4.170857e-04 3.787961e-04 3.356871e-04 2.878202e-04 2.353430e-04 1.784938e-04 1.176040e-04 5.309689e-05 -1.451637e-05 -8.464464e-05 -1.566276e-04 -2.297495e-04 -3.032557e-04 -3.763707e-04 -4.483171e-04 -5.183354e-04 -5.857019e-04 -6.497467e-04 -7.098678e-04 -7.655440e-04 -8.163436e-04 -8.619304e-04 -9.020657e-04 -9.366080e-04 -9.655090e-04 -9.888073e-04 -1.006621e-03 -1.019138e-03 -1.026603e-03 -1.029313e-03 -1.027597e-03 -1.021815e-03 -1.012342e-03 -9.995608e-04 -9.838543e-04 -9.655990e-04 -9.451589e-04 -9.228813e-04 -8.990935e-04 -8.741002e-04 -8.481820e-04
5.006116e-04 5.158627e-04 5.307653e-04 5.451644e-04 5.588842e-04 5.717265e-04 5.834697e-04 5.938679e-04 6.026511e-04 6.095255e-04 6.141746e-04 6.162616e-04 6.154328e-04 6.113220e-04 6.035570e-04 5.917667e-04 5.755904e-04 5.546884e-04 5.287537e-04 4.975249e-04 4.607996e-04 4.184479e-04 3.704252e-04 3.167840e-04 2.576834e-04 1.933959e-04 1.243104e-04 5.093200e-05 -2.612355e-05 -1.061395e-04 -1.883119e-04 -2.717679e-04 -3.555870e-04 -4.388243e-04 -5.205357e-04 -5.998028e-04 -6.757568e-04 -7.475999e-04 -8.146245e-04 -8.762276e-04 -9.319214e-04 -9.813393e-04 -1.024238e-03 -1.060493e-03 -1.090097e-03 -1.113146e-03 -1.129828e-03 -1.140415e-03 -1.145243e-03 -1.144701e-03 -1.139217e-03 -1.129243e-03 -1.115245e-03 -1.097693e-03 -1.077048e-03 -1.053758e-03 -1.028250e-03 -1.000928e-03 -9.721664e-04 -9.423093e-04 -9.116699e-04
5.304066e-04 5.478223e-04 5.649726e-04 5.816908e-04 5.977853e-04 6.130374e-04 6.272003e-04 6.399968e-04 6.511192e-04 6.602292e-04 6.669585e-04 6.709110e-04 6.716660e-04 6.687837e-04 6.618116e-04 6.502939e-04 6.337816e-04 6.118467e-04 5.840956e-04 5.501868e-04 5.098473e-04 4.628908e-04 4.092349e-04 3.489166e-04 2.821057e-04 2.091142e-04 1.304015e-04 4.657380e-05 -4.162201e-05 -1.333109e-04 -2.275077e-04 -3.231411e-04 -4.190813e-04 -5.141711e-04 -6.072582e-04 -6.972280e-04 -7.830341e-04 -8.637259e-04 -9.384715e-04 -1.006576e-03 -1.067494e-03 -1.120832e-03 -1.166355e-03 -1.203975e-03 -1.233743e-03 -1.255840e-03 -1.270552e-03 -1.278261e-03 -1.279422e-03 -1.274544e-03 -1.264174e-03 -1.248883e-03 -1.229245e-03 -1.205830e-03 -1.179194e-03 -1.149866e-03 -1.118344e-03 -1.085093e-03 -1.050538e-03 -1.015065e-03 -9.790176e-04
5.614504e-04 5.812739e-04 6.009411e-04 6.202740e-04 6.390656e-04 6.570766e-04 6.740328e-04 6.896236e-04 7.034995e-04 7.152718e-04 7.245128e-04 7.307571e-04 7.335050e-04 7.322278e-04 7.263758e-04 7.153882e-04 6.987063e-04 6.757896e-04 6.461343e-04 6.092945e-04 5.649042e-04 5.127013e-04 4.525504e-04 3.844642e-04 3.086215e-04 2.253811e-04 1.352887e-04 3.907759e-05 -6.233941e-05 -1.678859e-04 -2.763460e-04 -3.863956e-04 -4.966397e-04 -6.056528e-04 -7.120222e-04 -8.143902e-04 -9.114939e-04 -1.002200e-03 -1.085532e-03 -1.160695e-03 -1.227086e-03 -1.284299e-03 -1.332122e-03 -1.370530e-03 -1.399668e-03 -1.419831e-03 -1.431441e-03 -1.435027e-03 -1.431195e-03 -1.420608e-03 -1.403963e-03 -1.381971e-03 -1.355339e-03 -1.324758e-03 -1.290887e-03 -1.254348e-03 -1.215720e-03 -1.175530e-03 -1.134257e-03 -1.092327e-03 -1.050115e-03
5.936476e-04 6.161397e-04 6.386153e-04 6.608869e-04 6.827326e-04 7.038923e-04 7.240641e-04 7.429010e-04 7.600079e-04 7.749399e-04 7.872009e-04 7.962452e-04 8.014794e-04 8.022683e-04 7.979433e-04 7.878140e-04 7.711841e-04 7.473707e-04 7.157281e-04 6.756742e-04 6.267204e-04 5.685026e-04 5.008121e-04 4.236246e-04 3.371258e-04 2.417300e-04 1.380911e-04 2.710395e-05 -9.010593e-05 -2.122033e-04 -3.376754e-04 -4.648740e-04 -5.920650e-04 -7.174831e-04 -8.393884e-04 -9.561220e-04 -1.066157e-03 -1.168144e-03 -1.260943e-03 -1.343653e-03 -1.415619e-03 -1.476443e-03 -1.525970e-03 -1.564273e-03 -1.591632e-03 -1.608506e-03 -1.615501e-03 -1.613335e-03 -1.602813e-03 -1.584790e-03 -1.560147e-03 -1.529767e-03 -1.494511e-03 -1.455210e-03 -1.412644e-03 -1.367536e-03 -1.320548e-03 -1.272277e-03 -1.223252e-03 -1.173938e-03 -1.124736e-03
6.268617e-04 6.522995e-04 6.778972e-04 7.034599e-04 7.287524e-04 7.534948e-04 7.773571e-04 7.999542e-04 8.208417e-04 8.395118e-04 8.553913e-04 8.678407e-04 8.761562e-04 8.795744e-04 8.772816e-04 8.684267e-04 8.521402e-04 8.275577e-04 7.938499e-04 7.502571e-04 6.961278e-04 6.309603e-04 5.544449e-04 4.665037e-04 3.673254e-04 2.573926e-04 1.374972e-04 8.742715e-06 -1.274685e-04 -2.694642e-04 -4.153457e-04 -5.630451e-04 -7.103925e-04 -8.551893e-04 -9.952841e-04 -1.128646e-03 -1.253428e-03 -1.368028e-03 -1.471126e-03 -1.561714e-03 -1.639109e-03 -1.702950e-03 -1.753185e-03 -1.790042e-03 -1.813997e-03 -1.825735e-03 -1.826104e-03 -1.816076e-03 -1.796703e-03 -1.769082e-03 -1.734319e-03 -1.693500e-03 -1.647671e-03 -1.597818e-03 -1.544855e-03 -1.489615e-03 -1.432848e-03 -1.375216e-03 -1.317297e-03 -1.259588e-03 -1.202510e-03
6.609065e-04 6.895816e-04 7.186357e-04 7.478697e-04 7.770385e-04 8.058441e-04 8.339292e-04 8.608699e-04 8.861689e-04 9.092497e-04 9.294517e-04 9.460274e-04 9.581423e-04 9.648789e-04 9.652457e-04 9.581916e-04 9.426279e-04 9.174578e-04 8.816133e-04 8.341004e-04 7.740505e-04 7.007760e-04 6.138280e-04 5.130516e-04 3.986349e-04 2.711467e-04 1.315592e-04 -1.874848e-05 -1.780078e-04 -3.441009e-04 -5.146213e-04 -6.869523e-04 -8.583599e-04 -1.026092e-03 -1.187479e-03 -1.340031e-03 -1.481522e-03 -1.610058e-03 -1.724129e-03 -1.822637e-03 -1.904906e-03 -1.970669e-03 -2.020046e-03 -2.053498e-03 -2.071779e-03 -2.075881e-03 -2.066978e-03 -2.046365e-03 -2.015409e-03 -1.975504e-03 -1.928025e-03 -1.874300e-03 -1.815582e-03 -1.753034e-03 -1.687713e-03 -1.620566e-03 -1.552427e-03 -1.484021e-03 -1.415966e-03 -1.348779e-03 -1.282887e-03
6.955372e-04 7.277518e-04 7.606146e-04 7.939270e-04 8.274380e-04 8.608357e-04 8.937377e-04 9.256818e-04 9.561160e-04 9.843892e-04 1.009743e-03 1.031306e-03 1.048090e-03 1.058990e-03 1.062799e-03 1.058213e-03 1.043867e-03 1.018361e-03 9.803153e-04 9.284249e-04 8.615284e-04 7.786854e-04 6.792549e-04 5.629734e-04 4.300240e-04 2.810896e-04 1.173855e-04 -5.933620e-05 -2.468123e-04 -4.423256e-04 -6.427914e-04 -8.448686e-04 -1.045087e-03 -1.239986e-03 -1.426246e-03 -1.600818e-03 -1.761031e-03 -1.904674e-03 -2.030051e-03 -2.136016e-03 -2.221964e-03 -2.287813e-03 -2.333953e-03 -2.361187e-03 -2.370662e-03 -2.363784e-03 -2.342150e-03 -2.307470e-03 -2.261504e-03 -2.206003e-03 -2.142662e-03 -2.073086e-03 -1.998762e-03 -1.921041e-03 -1.841128e-03 -1.760082e-03 -1.678815e-03 -1.598100e-03 -1.518578e-03 -1.440775e-03 -1.365103e-03
7.304393e-04 7.665017e-04 8.035391e-04 8.413603e-04 8.797150e-04 9.182829e-04 9.566617e-04 9.943536e-04 1.030752e-03 1.065127e-03 1.096612e-03 1.124194e-03 1.146704e-03 1.162814e-03 1.171047e-03 1.169784e-03 1.157302e-03 1.131810e-03 1.091512e-03 1.034684e-03 9.597666e-04 8.654715e-04 7.508905e-04 6.156078e-04 4.597981e-04 2.843036e-04 9.067876e-05 -1.188047e-04 -3.411981e-04 -5.729610e-04 -8.100884e-04 -1.048270e-03 -1.283071e-03 -1.510122e-03 -1.725295e-03 -1.924876e-03 -2.105689e-03 -2.265200e-03 -2.401573e-03 -2.513691e-03 -2.601137e-03 -2.664143e-03 -2.703521e-03 -2.720566e-03 -2.716961e-03 -2.694667e-03 -2.655826e-03 -2.602669e-03 -2.537432e-03 -2.462295e-03 -2.379321e-03 -2.290425e-03 -2.197344e-03 -2.101625e-03 -2.004617e-03 -1.907476e-03 -1.811177e-03 -1.716519e-03 -1.624145e-03 -1.534560e-03 -1.448143e-03
7.652166e-04 8.054341e-04 8.470194e-04 8.897979e-04 9.335293e-04 9.778944e-04 1.022479e-03 1.066756e-03 1.110067e-03 1.151603e-03 1.190380e-03 1.225225e-03 1.254758e-03 1.277384e-03 1.291291e-03 1.294461e-03 1.284709e-03 1.259723e-03 1.217149e-03 1.154693e-03 1.070242e-03 9.620197e-04 8.287415e-04 6.697768e-04 4.852924e-04 2.763639e-04 4.503860e-05 -2.056630e-04 -4.718140e-04 -7.487149e-04 -1.031086e-03 -1.313305e-03 -1.589664e-03 -1.854632e-03 -2.103097e-03 -2.330574e-03 -2.533363e-03 -2.708652e-03 -2.854571e-03 -2.970186e-03 -3.055447e-03 -3.111106e-03 -3.138602e-03 -3.139924e-03 -3.117480e-03 -3.073952e-03 -3.012173e-03 -2.935012e-03 -2.845276e-03 -2.745638e-03 -2.638573e-03 -2.526330e-03 -2.410902e-03 -2.294023e-03 -2.177167e-03 -2.061567e-03 -1.948224e-03 -1.837934e-03 -1.731306e-03 -1.628791e-03 -1.530701e-03
7.993779e-04 8.440465e-04 8.905510e-04 9.387452e-04 9.884121e-04 1.039247e-03 1.090836e-03 1.142636e-03 1.193946e-03 1.243878e-03 1.291329e-03 1.334950e-03 1.373118e-03 1.403914e-03 1.425114e-03 1.434194e-03 1.428358e-03 1.404602e-03 1.359807e-03 1.290880e-03 1.194928e-03 1.069472e-03 9.126848e-04 7.236263e-04 5.024614e-04 2.506250e-04 -2.909008e-05 -3.325431e-04 -6.543632e-04 -9.881692e-04 -1.326876e-03 -1.663052e-03 -1.989304e-03 -2.298636e-03 -2.584773e-03 -2.842407e-03 -3.067372e-03 -3.256736e-03 -3.408815e-03 -3.523125e-03 -3.600275e-03 -3.641830e-03 -3.650134e-03 -3.628133e-03 -3.579188e-03 -3.506898e-03 -3.414947e-03 -3.306962e-03 -3.186410e-03 -3.056511e-03 -2.920183e-03 -2.780011e-03 -2.638230e-03 -2.496735e-03 -2.357089e-03 -2.220552e-03 -2.088110e-03 -1.960504e-03 -1.838264e-03 -1.721745e-03 -1.611147e-03
8.323223e-04 8.817136e-04 9.334928e-04 9.875583e-04 1.043734e-03 1.101749e-03 1.161211e-03 1.221579e-03 1.282126e-03 1.341900e-03 1.399682e-03 1.453936e-03 1.502764e-03 1.543866e-03 1.574508e-03 1.591515e-03 1.591292e-03 1.569888e-03 1.523119e-03 1.446750e-03 1.336749e-03 1.189600e-03 1.002660e-03 7.745257e-04 5.053729e-04 1.972085e-04 -1.460020e-04 -5.183740e-04 -9.123208e-04 -1.318936e-03 -1.728497e-03 -2.131043e-03 -2.516937e-03 -2.877380e-03 -3.204815e-03 -3.493201e-03 -3.738155e-03 -3.936988e-03 -4.088632e-03 -4.193501e-03 -4.253308e-03 -4.270832e-03 -4.249693e-03 -4.194101e-03 -4.108632e-03 -3.998008e-03 -3.866916e-03 -3.719854e-03 -3.561010e-03 -3.394184e-03 -3.222733e-03 -3.049553e-03 -2.877080e-03 -2.707310e-03 -2.541833e-03 -2.381870e-03 -2.228322e-03 -2.081813e-03 -1.942733e-03 -1.811281e-03 -1.687500e-03
8.633232e-04 9.176664e-04 9.750414e-04 1.035412e-03 1.098667e-03 1.164597e-03 1.232859e-03 1.302948e-03 1.374141e-03 1.445451e-03 1.515560e-03 1.582748e-03 1.644822e-03 1.699042e-03 1.742051e-03 1.769845e-03 1.777764e-03 1.760554e-03 1.712515e-03 1.627740e-03 1.500483e-03 1.325629e-03 1.099252e-03 8.192087e-04 4.856880e-04 1.016274e-04 -3.270983e-04 -7.917784e-04 -1.281282e-03 -1.782751e-03 -2.282487e-03 -2.766894e-03 -3.223366e-03 -3.640991e-03 -4.011023e-03 -4.327113e-03 -4.585316e-03 -4.783947e-03 -4.923335e-03 -5.005524e-03 -5.033963e-03 -5.013184e-03 -4.948506e-03 -4.845737e-03 -4.710916e-03 -4.550066e-03 -4.368993e-03 -4.173125e-03 -3.967393e-03 -3.756155e-03 -3.543158e-03 -3.331541e-03 -3.123855e-03 -2.922105e-03 -2.727811e-03 -2.542062e-03 -2.365584e-03 -2.198800e-03 -2.041884e-03 -1.894814e-03 -1.757414e-03
8.915136e-04 9.509711e-04 1.014203e-03 1.081264e-03 1.152139e-03 1.226716e-03 1.304748e-03 1.385810e-03 1.469238e-03 1.554059e-03 1.638905e-03 1.721905e-03 1.800574e-03 1.871685e-03 1.931148e-03 1.973911e-03 1.993903e-03 1.984064e-03 1.936496e-03 1.842786e-03 1.694516e-03 1.483997e-03 1.205168e-03 8.545931e-04 4.324134e-04 -5.692507e-05 -6.043518e-04 -1.196397e-03 -1.816006e-03 -2.443857e-03 -3.059991e-03 -3.645461e-03 -4.183754e-03 -4.661750e-03 -5.070175e-03 -5.403566e-03 -5.659889e-03 -5.839975e-03 -5.946916e-03 -5.985513e-03 -5.961804e-03 -5.882686e-03 -5.755583e-03 -5.588163e-03 -5.388071e-03 -5.162703e-03 -4.918999e-03 -4.663284e-03 -4.401164e-03 -4.137461e-03 -3.876199e-03 -3.620630e-03 -3.373283e-03 -3.136041e-03 -2.910219e-03 -2.696651e-03 -2.495776e-03 -2.307712e-03 -2.132328e-03 -1.969305e-03 -1.818184e-03
9.158713e-04 9.805082e-04 1.049761e-03 1.123810e-03 1.202775e-03 1.286691e-03 1.375465e-03 1.468826e-03 1.566248e-03 1.666866e-03 1.769352e-03 1.871770e-03 1.971403e-03 2.064547e-03 2.146292e-03 2.210310e-03 2.248691e-03 2.251872e-03 2.208755e-03 2.107077e-03 1.934141e-03 1.677931e-03 1.328614e-03 8.802849e-04 3.327131e-04 -3.072755e-04 -1.025166e-03 -1.799193e-03 -2.601952e-03 -3.403018e-03 -4.172091e-03 -4.882065e-03 -5.511389e-03 -6.045349e-03 -6.476162e-03 -6.802141e-03 -7.026299e-03 -7.154861e-03 -7.195986e-03 -7.158843e-03 -7.053049e-03 -6.888349e-03 -6.674436e-03 -6.420799e-03 -6.136567e-03 -5.830334e-03 -5.509991e-03 -5.182575e-03 -4.854175e-03 -4.529881e-03 -4.213800e-03 -3.909100e-03 -3.618104e-03 -3.342387e-03 -3.082896e-03 -2.840057e-03 -2.613888e-03 -2.404088e-03 -2.210121e-03 -2.031287e-03 -1.866778e-03
9.352091e-04 1.004954e-03 1.080253e-03 1.161446e-03 1.248839e-03 1.342679e-03 1.443106e-03 1.550103e-03 1.663408e-03 1.782409e-03 1.905986e-03 2.032317e-03 2.158623e-03 2.280844e-03 2.393273e-03 2.488148e-03 2.555256e-03 2.581647e-03 2.551568e-03 2.446813e-03 2.247657e-03 1.934559e-03 1.490673e-03 9.050029e-04 1.757795e-04 -6.866901e-04 -1.658567e-03 -2.703193e-03 -3.774306e-03 -4.821393e-03 -5.796125e-03 -6.658377e-03 -7.380418e-03 -7.948434e-03 -8.361376e-03 -8.627897e-03 -8.762538e-03 -8.782250e-03 -8.703927e-03 -8.543120e-03 -8.313706e-03 -8.028103e-03 -7.697648e-03 -7.332899e-03 -6.943749e-03 -6.539386e-03 -6.128156e-03 -5.717406e-03 -5.313368e-03 -4.921105e-03 -4.544529e-03 -4.186474e-03 -3.848817e-03 -3.532614e-03 -3.238251e-03 -2.965577e-03 -2.714043e-03 -2.482804e-03 -2.270820e-03 -2.076928e-03 -1.899902e-03
9.481717e-04 1.022768e-03 1.103937e-03 1.192221e-03 1.288169e-03 1.392313e-03 1.505135e-03 1.627006e-03 1.758106e-03 1.898298e-03 2.046953e-03 2.202689e-03 2.363026e-03 2.523912e-03 2.679126e-03 2.819550e-03 2.932362e-03 3.000260e-03 3.000924e-03 2.907029e-03 2.687242e-03 2.308634e-03 1.740822e-03 9.617762e-04 -3.541541e-05 -1.236281e-03 -2.601219e-03 -4.066251e-03 -5.549361e-03 -6.961791e-03 -8.221826e-03 -9.267391e-03 -1.006398e-02 -1.060600e-02 -1.091184e-02 -1.101510e-02 -1.095498e-02 -1.076875e-02 -1.048735e-02 -1.013436e-02 -9.727012e-03 -9.278221e-03 -8.798469e-03 -8.297132e-03 -7.783104e-03 -7.264890e-03 -6.750406e-03 -6.246691e-03 -5.759669e-03 -5.294013e-03 -4.853135e-03 -4.439259e-03 -4.053570e-03 -3.696379e-03 -3.367311e-03 -3.065472e-03 -2.789598e-03 -2.538189e-03 -2.309604e-03 -2.102144e-03 -1.914111e-03
9.532449e-04 1.032198e-03 1.118791e-03 1.213812e-03 1.318114e-03 1.432606e-03 1.558231e-03 1.695925e-03 1.846546e-03 2.010761e-03 2.188853e-03 2.380434e-03 2.583998e-03 2.796289e-03 3.011391e-03 3.219525e-03 3.405545e-03 3.547210e-03 3.613538e-03 3.563732e-03 3.347539e-03 2.908124e-03 2.188520e-03 1.142181e-03 -2.531977e-04 -1.981340e-03 -3.977169e-03 -6.125992e-03 -8.275609e-03 -1.026071e-02 -1.193379e-02 -1.319315e-02 -1.399914e-02 -1.437370e-02 -1.438489e-02 -1.412339e-02 -1.367948e-02 -1.312713e-02 -1.251758e-02 -1.188088e-02 -1.123182e-02 -1.057670e-02 -9.918742e-03 -9.261204e-03 -8.608649e-03 -7.966845e-03 -7.342100e-03 -6.740481e-03 -6.167210e-03 -5.626297e-03 -5.120425e-03 -4.650997e-03 -4.218300e-03 -3.821715e-03 -3.459939e-03 -3.131188e-03 -2.833371e-03 -2.564232e-03 -2.321460e-03 -2.102771e-03 -1.905958e-03
9.487821e-04 1.031298e-03 1.122519e-03 1.223517e-03 1.335510e-03 1.459872e-03 1.598144e-03 1.752030e-03 1.923364e-03 2.114042e-03 2.325872e-03 2.560298e-03 2.817933e-03 3.097778e-03 3.396013e-03 3.704172e-03 4.006588e-03 4.277032e-03 4.474773e-03 4.540745e-03 4.395279e-03 3.939763e-03 3.065244e-03 1.670612e-03 -3.093834e-04 -2.870742e-03 -5.911822e-03 -9.224068e-03 -1.251350e-02 -1.545429e-02 -1.776087e-02 -1.925431e-02 -1.989809e-02 -1.979090e-02 -1.912220e-02 -1.811079e-02 -1.695015e-02 -1.577680e-02 -1.466451e-02 -1.363701e-02 -1.268802e-02 -1.179945e-02 -1.095355e-02 -1.013854e-02 -9.349623e-03 -8.587420e-03 -7.855744e-03 -7.159529e-03 -6.503382e-03 -5.890768e-03 -5.323695e-03 -4.802733e-03 -4.327213e-03 -3.895497e-03 -3.505264e-03 -3.153755e-03 -2.837982e-03 -2.554887e-03 -2.301455e-03 -2.074796e-03 -1.872191e-03
9.330555e-04 1.017981e-03 1.112601e-03 1.218296e-03 1.336690e-03 1.469702e-03 1.619600e-03 1.789061e-03 1.981225e-03 2.199729e-03 2.448685e-03 2.732543e-03 3.055745e-03 3.421988e-03 3.832861e-03 4.285478e-03 4.768643e-03 5.257069e-03 5.703372e-03 6.028291e-03 6.111047e-03 5.784205e-03 4.840295e-03 3.059117e-03 2.619511e-04 -3.611327e-03 -8.423539e-03 -1.379738e-02 -1.914660e-02 -2.379423e-02 -2.714769e-02 -2.886420e-02 -2.893681e-02 -2.766567e-02 -2.553333e-02 -2.304423e-02 -2.059577e-02 -1.841978e-02 -1.659299e-02 -1.508736e-02 -1.382704e-02 -1.273106e-02 -1.173582e-02 -1.080135e-02 -9.908204e-03 -9.050995e-03 -8.232060e-03 -7.456709e-03 -6.730290e-03 -6.056711e-03 -5.437944e-03 -4.874092e-03 -4.363715e-03 -3.904242e-03 -3.492362e-03 -3.124356e-03 -2.796347e-03 -2.504484e-03 -2.245072e-03 -2.014638e-03 -1.809984e-03
9.043369e-04 9.901132e-04 1.086397e-03 1.194874e-03 1.317590e-03 1.457047e-03 1.616327e-03 1.799249e-03 2.010559e-03 2.256151e-03 2.543310e-03 2.880915e-03 3.279509e-03 3.751031e-03 4.307840e-03 4.960390e-03 5.712562e-03 6.553235e-03 7.442444e-03 8.290872e-03 8.933528e-03 9.103382e-03 8.419306e-03 6.412646e-03 2.620297e-03 -3.244362e-03 -1.107731e-02 -2.022231e-02 -2.948556e-02 -3.739451e-02 -4.263670e-02 -4.449300e-02 -4.305965e-02 -3.915566e-02 -3.397327e-02 -2.865363e-02 -2.398234e-02 -2.029923e-02 -1.758757e-02 -1.563800e-02 -1.419444e-02 -1.304067e-02 -1.203053e-02 -1.108328e-02 -1.016515e-02 -9.270144e-03 -8.405262e-03 -7.581347e-03 -6.808200e-03 -6.092619e-03 -5.438049e-03 -4.845011e-03 -4.311810e-03 -3.835238e-03 -3.411181e-03 -3.035084e-03 -2.702281e-03 -2.408221e-03 -2.148606e-03 -1.919467e-03 -1.717198e-03
8.610112e-04 9.456462e-04 1.041302e-03 1.149929e-03 1.273956e-03 1.416442e-03 1.581286e-03 1.773503e-03 1.999613e-03 2.268147e-03 2.590308e-03 2.980798e-03 3.458777e-03 4.048794e-03 4.781340e-03 5.692186e-03 6.818933e-03 8.191958e-03 9.815297e-03 1.163153e-02 1.346525e-02 1.494609e-02 1.543049e-02 1.397471e-02 9.448456e-03 8.777596e-04 -1.199485e-02 -2.815418e-02 -4.515739e-02 -5.968062e-02 -6.865126e-02 -7.042537e-02 -6.539388e-02 -5.570834e-02 -4.429525e-02 -3.371210e-02 -2.543011e-02 -1.977151e-02 -1.629961e-02 -1.430075e-02 -1.311842e-02 -1.229152e-02 -1.155839e-02 -1.080394e-02 -1.000020e-02 -9.160992e-03 -8.314145e-03 -7.487117e-03 -6.701207e-03 -5.970325e-03 -5.301834e-03 -4.698074e-03 -4.157897e-03 -3.677948e-03 -3.253631e-03 -2.879795e-03 -2.551177e-03 -2.262692e-03 -2.009589e-03 -1.787534e-03 -1.592634e-03
8.017212e-04 8.828013e-04 9.749782e-04 1.080378e-03 1.201704e-03 1.342450e-03 1.507190e-03 1.702006e-03 1.935092e-03 2.217626e-03 2.565007e-03 2.998595e-03 3.548104e-03 4.254759e-03 5.175151e-03 6.385275e-03 7.983114e-03 1.008590e-02 1.281405e-02 1.624720e-02 2.033030e-02 2.470562e-02 2.846776e-02 2.991326e-02 2.650120e-02 1.538367e-02 -5.241459e-03 -3.432897e-02 -6.697845e-02 -9.549499e-02 -1.123929e-01 -1.136602e-01 -1.004469e-01 -7.831633e-02 -5.446806e-02 -3.457371e-02 -2.110188e-02 -1.367731e-02 -1.050998e-02 -9.684243e-03 -9.794702e-03 -1.004175e-02 -1.008024e-02 -9.829864e-03 -9.332709e-03 -8.669436e-03 -7.918840e-03 -7.142906e-03 -6.384472e-03 -5.669995e-03 -5.013645e-03 -4.421132e-03 -3.892736e-03 -3.425499e-03 -3.014734e-03 -2.654994e-03 -2.340684e-03 -2.066413e-03 -1.827183e-03 -1.618474e-03 -1.436268e-03
7.255362e-04 8.002872e-04 8.856402e-04 9.837514e-04 1.097413e-03 1.230307e-03 1.387369e-03 1.575342e-03 1.803597e-03 2.085364e-03 2.439606e-03 2.893841e-03 3.488390e-03 4.282688e-03 5.364443e-03 6.862372e-03 8.962516e-03 1.192572e-02 1.609758e-02 2.188844e-02 2.967504e-02 3.953789e-02 5.072375e-02 6.079627e-02 6.478254e-02 5.533272e-02 2.542761e-02 -2.614856e-02 -9.015856e-02 -1.485787e-01 -1.829214e-01 -1.831622e-01 -1.521758e-01 -1.040701e-01 -5.658465e-02 -2.198810e-02 -3.266963e-03 3.155721e-03 2.687185e-03 -3.940299e-04 -3.659837e-03 -6.114878e-03 -7.568968e-03 -8.175700e-03 -8.179062e-03 -7.803294e-03 -7.219183e-03 -6.543760e-03 -5.851145e-03 -5.184778e-03 -4.567628e-03 -4.009708e-03 -3.513242e-03 -3.076039e-03 -2.693637e-03 -2.360599e-03 -2.071281e-03 -1.820250e-03 -1.602501e-03 -1.413545e-03 -1.249425e-03
6.321266e-04 6.975343e-04 7.723707e-04 8.586267e-04 9.589177e-04 1.076749e-03 1.216918e-03 1.386128e-03 1.593942e-03 1.854275e-03 2.187754e-03 2.625484e-03 3.215067e-03 4.030260e-03 5.186406e-03 6.864784e-03 9.350119e-03 1.308558e-02 1.874586e-02 2.731369e-02 4.010142e-02 5.855839e-02 8.352156e-02 1.133780e-01 1.408651e-01 1.500524e-01 1.190076e-01 3.455169e-02 -8.829154e-02 -2.071440e-01 -2.780038e-01 -2.774765e-01 -2.110202e-01 -1.125906e-01 -2.575372e-02 2.484078e-02 4.094966e-02 3.675061e-02 2.520571e-02 1.363039e-02 4.767335e-03 -1.061225e-03 -4.440343e-03 -6.112769e-03 -6.701818e-03 -6.654614e-03 -6.265386e-03 -5.716641e-03 -5.115982e-03 -4.523388e-03 -3.969699e-03 -3.468527e-03 -3.023675e-03 -2.633645e-03 -2.294311e-03 -2.000459e-03 -1.746654e-03 -1.527688e-03 -1.338800e-03 -1.175757e-03 -1.034862e-03
5.219209e-04 5.749116e-04 6.354232e-04 7.050522e-04 7.859180e-04 8.808993e-04 9.940032e-04 1.130945e-03 1.300073e-03 1.513875e-03 1.791442e-03 2.162571e-03 2.674654e-03 3.404372e-03 4.477665e-03 6.103984e-03 8.634864e-03 1.266299e-02 1.918505e-02 2.985402e-02 4.732149e-02 7.555396e-02 1.196444e-01 1.837854e-01 2.647679e-01 3.389191e-01 3.513817e-01 2.431610e-01 3.024950e-02 -1.837174e-01 -3.109689e-01 -3.143655e-01 -1.917672e-01 -1.458424e-02 1.092680e-01 1.444256e-01 1.241437e-01 8.701436e-02 5.318041e-02 2.859065e-02 1.276987e-02 3.423056e-03 -1.678844e-03 -4.189741e-03 -5.201012e-03 -5.387507e-03 -5.149197e-03 -4.715321e-03 -4.212877e-03 -3.709171e-03 -3.237396e-03 -2.811698e-03 -2.435919e-03 -2.108590e-03 -1.825751e-03 -1.582492e-03 -1.373782e-03 -1.194874e-03 -1.041486e-03 -9.098605e-04 -7.967481e-04
3.962177e-04 4.338860e-04 4.764509e-04 5.248826e-04 5.804753e-04 6.450067e-04 7.209950e-04 8.121174e-04 9.239035e-04 1.064900e-03 1.248659e-03 1.497174e-03 1.846908e-03 2.359512e-03 3.141123e-03 4.377536e-03 6.398890e-03 9.799373e-03 1.565857e-02 2.594595e-02 4.423636e-02 7.688505e-02 1.346387e-01 2.337336e-01 3.923075e-01 6.093892e-01 8.046618e-01 7.790051e-01 5.096179e-01 3.151024e-01 2.270662e-01 1.874419e-01 3.293845e-01 5.400377e-01 5.226839e-01 3.689720e-01 2.273400e-01 1.303059e-01 7.017641e-02 3.498921e-02 1.531290e-02 4.782926e-03 -5.570987e-04 -3.041264e-03 -4.000256e-03 -4.175015e-03 -3.970339e-03 -3.603011e-03 -3.186002e-03 -2.775596e-03 -2.397539e-03 -2.061454e-03 -1.768739e-03 -1.516857e-03 -1.301624e-03 -1.118403e-03 -9.626949e-04 -8.304047e-04 -7.179322e-04 -6.221792e-04 -5.405132e-04
2.572246e-04 2.770837e-04 2.986042e-04 3.219319e-04 3.472542e-04 3.748388e-04 4.051079e-04 4.387779e-04 4.771194e-04 5.224422e-04 5.789958e-04 6.546535e-04 7.640757e-04 9.347072e-04 1.218260e-03 1.712951e-03 2.607070e-03 4.265332e-03 7.401683e-03 1.342721e-02 2.515031e-02 4.817069e-02 9.358469e-02 1.830205e-01 3.575367e-01 6.912574e-01 1.275100e+00 1.809523e+00 1.878499e+00 3.096250e+00 3.684540e+00 3.400000e+00 3.150278e+00 2.751188e+00 1.299808e+00 5.278838e-01 2.322950e-01 1.086287e-01 5.067043e-02 2.211327e-02 8.009725e-03 1.240947e-03 -1.801742e-03 -2.978965e-03 -3.249755e-03 -3.104647e-03 -2.790898e-03 -2.429899e-03 -2.078346e-03 -1.760083e-03 -1.482660e-03 -1.245890e-03 -1.046235e-03 -8.789973e-04 -7.393846e-04 -6.229772e-04 -5.259020e-04 -4.448602e-04 -3.770883e-04 -3.202945e-04 -2.725885e-04
1.080050e-04 1.082259e-04 1.064518e-04 1.018769e-04 9.340452e-05 7.953864e-05 5.823377e-05 2.668520e-05 -1.896331e-05 -8.402694e-05 -1.758444e-04 -3.045511e-04 -4.841153e-04 -7.336636e-04 -1.079029e-03 -1.554168e-03 -2.201360e-03 -3.067319e-03 -4.188159e-03 -5.546632e-03 -6.964487e-03 -7.851045e-03 -6.652185e-03 2.949959e-04 2.124505e-02 7.697017e-02 2.476847e-01 9.584830e-01 3.131435e+00 7.380886e+00 7.734557e+00 7.552113e+00 6.845750e+00 2.533431e+00 2.915062e-01 4.344228e-02 1.263707e-03 -7.893599e-03 -9.546476e-03 -8.883616e-03 -7.500794e-03 -6.030704e-03 -4.719653e-03 -3.638215e-03 -2.781419e-03 -2.117163e-03 -1.608004e-03 -1.219802e-03 -9.243263e-04 -6.993239e-04 -5.276925e-04 -3.964636e-04 -2.958665e-04 -2.185557e-04 -1.590073e-04 -1.130582e-04 -7.756125e-05 -5.012816e-05 -2.893926e-05 -1.260205e-05 -4.628994e-08
-4.767192e-05 -6.806947e-05 -9.428650e-05 -1.281093e-04 -1.719515e-04 -2.291080e-04 -3.041282e-04 -4.033698e-04 -5.358361e-04 -7.144597e-04 -9.581073e-04 -1.294766e-03 -1.766705e-03 -2.439019e-03 -3.414043e-03 -4.856244e-03 -7.036120e-03 -1.040930e-02 -1.576191e-02 -2.448232e-02 -3.907479e-02 -6.413441e-02 -1.081873e-01 -1.871348e-01 -3.308015e-01 -5.960699e-01 -1.079338e+00 -1.648660e+00 -2.388109e+00 -4.690149e+00 -5.514668e+00 -5.320530e+00 -4.958416e+00 -3.575708e+00 -1.377442e+00 -5.358262e-01 -2.462859e-01 -1.271717e-01 -6.965554e-02 -3.924512e-02 -2.241088e-02 -1.284869e-02 -7.322470e-03 -4.087604e-03 -2.176835e-03 -1.042968e-03 -3.710600e-04 2.306666e-05 2.487200e-04 3.716582e-04 4.319181e-04 4.541244e-04 4.535432e-04 4.396887e-04 4.185016e-04 3.936830e-04 3.675196e-04 3.414010e-04 3.161459e-04 2.922101e-04 2.698199e-04
-2.055661e-04 -2.466032e-04 -2.971690e-04 -3.599530e-04 -4.385619e-04 -5.378918e-04 -6.646760e-04 -8.283033e-04 -1.042062e-03 -1.325057e-03 -1.705222e-03 -2.224129e-03 -2.944804e-03 -3.964663e-03 -5.437290e-03 -7.609721e-03 -1.088716e-02 -1.594654e-02 -2.393646e-02 -3.682642e-02 -5.799813e-02 -9.317240e-02 -1.515947e-01 -2.466171e-01 -3.922642e-01 -5.861044e-01 -7.632075e-01 -7.754631e-01 -6.655806e-01 -6.953132e-01 -7.504215e-01 -7.594955e-01 -8.480382e-01 -8.780326e-01 -6.686025e-01 -4.238406e-01 -2.548712e-01 -1.506541e-01 -8.769641e-02 -5.014151e-02 -2.802347e-02 -1.513602e-02 -7.694681e-03 -3.440317e-03 -1.043374e-03 2.732321e-04 9.629430e-04 1.290728e-03 1.411819e-03 1.417351e-03 1.360829e-03 1.273555e-03 1.173666e-03 1.071473e-03 9.726274e-04 8.800223e-04 7.949285e-04 7.176814e-04 6.480947e-04 5.857076e-04 5.299328e-04
-3.612585e-04 -4.219842e-04 -4.955607e-04 -5.854081e-04 -6.960677e-04 -8.336429e-04 -1.006443e-03 -1.225936e-03 -1.508177e-03 -1.875983e-03 -2.362291e-03 -3.015422e-03 -3.907423e-03 -5.147476e-03 -6.903657e-03 -9.438443e-03 -1.316672e-02 -1.874954e-02 -2.724151e-02 -4.030771e-02 -6.049732e-02 -9.144649e-02 -1.375530e-01 -2.019260e-01 -2.804064e-01 -3.503962e-01 -3.635750e-01 -2.735841e-01 -1.038363e-01 5.602423e-02 1.428040e-01 1.327004e-01 2.844085e-02 -1.037966e-01 -1.789440e-01 -1.819764e-01 -1.466956e-01 -1.036410e-01 -6.712611e-02 -4.065101e-02 -2.306141e-02 -1.200570e-02 -5.332111e-03 -1.447430e-03 7.194922e-04 1.852724e-03 2.376469e-03 2.549092e-03 2.525997e-03 2.399639e-03 2.224329e-03 2.031398e-03 1.838399e-03 1.654685e-03 1.484774e-03 1.330379e-03 1.191629e-03 1.067805e-03 9.577698e-04 8.602223e-04 7.738422e-04
-5.104610e-04 -5.890383e-04 -6.831783e-04 -7.967929e-04 -9.350110e-04 -1.104632e-03 -1.314778e-03 -1.577835e-03 -1.910841e-03 -2.337538e-03 -2.891445e-03 -3.620503e-03 -4.594143e-03 -5.914052e-03 -7.730562e-03 -1.026730e-02 -1.385728e-02 -1.899299e-02 -2.638795e-02 -3.703099e-02 -5.217160e-02 -7.308004e-02 -1.002648e-01 -1.316866e-01 -1.598241e-01 -1.692211e-01 -1.396923e-01 -6.049739e-02 5.262701e-02 1.602129e-01 2.229954e-01 2.210005e-01 1.606235e-01 7.369150e-02 -9.350771e-04 -4.259356e-02 -5.381328e-02 -4.737982e-02 -3.471121e-02 -2.224960e-02 -1.244063e-02 -5.592988e-03 -1.192434e-03 1.436217e-03 2.875862e-03 3.558485e-03 3.780022e-03 3.733741e-03 3.541710e-03 3.278896e-03 2.990047e-03 2.700913e-03 2.425528e-03 2.170815e-03 1.939482e-03 1.731816e-03 1.546776e-03 1.382661e-03 1.237500e-03 1.109280e-03 9.960690e-04
-6.493048e-04 -7.431789e-04 -8.545693e-04 -9.876132e-04 -1.147651e-03 -1.341642e-03 -1.578748e-03 -1.871155e-03 -2.235231e-03 -2.693191e-03 -3.275471e-03 -4.024136e-03 -4.997722e-03 -6.278065e-03 -7.979635e-03 -1.026168e-02 -1.334243e-02 -1.751179e-02 -2.313229e-02 -3.060435e-02 -4.024757e-02 -5.201655e-02 -6.495464e-02 -7.637519e-02 -8.110642e-02 -7.180531e-02 -4.175917e-02 9.798528e-03 7.344759e-02 1.315061e-01 1.661127e-01 1.676874e-01 1.390799e-01 9.384502e-02 4.887990e-02 1.585104e-02 -2.274787e-03 -8.672999e-03 -8.304648e-03 -5.180076e-03 -1.650925e-03 1.249964e-03 3.256261e-03 4.449794e-03 5.022957e-03 5.169481e-03 5.046010e-03 4.766266e-03 4.407357e-03 4.018850e-03 3.631004e-03 3.261147e-03 2.918262e-03 2.606114e-03 2.325334e-03 2.074762e-03 1.852292e-03 1.655400e-03 1.481456e-03 1.327903e-03 1.192353e-03
-7.745714e-04 -8.806912e-04 -1.005462e-03 -1.152987e-03 -1.328470e-03 -1.538554e-03 -1.791788e-03 -2.099254e-03 -2.475418e-03 -2.939276e-03 -3.515897e-03 -4.238450e-03 -5.150809e-03 -6.310707e-03 -7.793178e-03 -9.693392e-03 -1.212678e-02 -1.522189e-02 -1.909727e-02 -2.380764e-02 -2.923800e-02 -3.492515e-02 -3.981071e-02 -4.200738e-02 -3.880189e-02 -2.724603e-02 -5.557196e-03 2.508374e-02 5.958144e-02 9.004518e-02 1.088086e-01 1.116853e-01 9.966214e-02 7.817543e-02 5.437887e-02 3.402483e-02 1.978427e-02 1.153147e-02 7.679951e-03 6.420859e-03 6.363225e-03 6.663700e-03 6.911059e-03 6.960685e-03 6.803367e-03 6.483990e-03 6.059202e-03 5.579117e-03 5.081710e-03 4.592950e-03 4.129006e-03 3.698823e-03 3.306358e-03 2.952328e-03 2.635467e-03 2.353389e-03 2.103161e-03 1.881670e-03 1.685843e-03 1.512775e-03 1.359790e-03
-8.838451e-04 -9.989058e-04 -1.132952e-03 -1.289838e-03 -1.474345e-03 -1.692439e-03 -1.951595e-03 -2.261210e-03 -2.633136e-03 -3.082332e-03 -3.627642e-03 -4.292675e-03 -5.106665e-03 -6.105070e-03 -7.329336e-03 -8.824807e-03 -1.063486e-02 -1.278819e-02 -1.527453e-02 -1.800328e-02 -2.074037e-02 -2.302714e-02 -2.410384e-02 -2.289498e-02 -1.814816e-02 -8.811949e-03 5.370162e-03 2.328545e-02 4.230393e-02 5.885559e-02 6.960893e-02 7.269998e-02 6.838364e-02 5.878530e-02 4.691468e-02 3.549555e-02 2.620297e-02 1.954949e-02 1.523643e-02 1.262095e-02 1.105788e-02 1.005796e-02 9.312872e-03 8.658080e-03 8.022308e-03 7.385772e-03 6.752457e-03 6.134304e-03 5.543439e-03 4.989085e-03 4.476902e-03 4.009377e-03 3.586571e-03 3.206870e-03 2.867625e-03 2.565623e-03 2.297432e-03 2.059624e-03 1.848918e-03 1.662258e-03 1.496852e-03
-9.755789e-04 -1.096253e-03 -1.235535e-03 -1.396865e-03 -1.584414e-03 -1.803242e-03 -2.059496e-03 -2.360633e-03 -2.715673e-03 -3.135455e-03 -3.632852e-03 -4.222863e-03 -4.922398e-03 -5.749495e-03 -6.721447e-03 -7.851088e-03 -9.140101e-03 -1.056785e-02 -1.207415e-02 -1.353524e-02 -1.473452e-02 -1.533573e-02 -1.487465e-02 -1.279593e-02 -8.563331e-03 -1.852591e-03 7.213419e-03 1.789102e-02 2.883424e-02 3.837586e-02 4.500334e-02 4.783416e-02 4.687267e-02 4.293403e-02 3.728829e-02 3.121042e-02 2.564024e-02 2.105820e-02 1.755163e-02 1.497026e-02 1.307641e-02 1.164284e-02 1.049576e-02 9.520827e-03 8.651777e-03 7.854882e-03 7.115535e-03 6.428850e-03 5.793913e-03 5.210720e-03 4.678792e-03 4.196731e-03 3.762252e-03 3.372394e-03 3.023775e-03 2.712826e-03 2.435963e-03 2.189722e-03 1.970835e-03 1.776281e-03 1.603307e-03
-1.049080e-03 -1.172215e-03 -1.312995e-03 -1.474350e-03 -1.659735e-03 -1.873210e-03 -2.119529e-03 -2.404213e-03 -2.733599e-03 -3.114829e-03 -3.555710e-03 -4.064373e-03 -4.648558e-03 -5.314324e-03 -6.063852e-03 -6.891920e-03 -7.780561e-03 -8.691468e-03 -9.556058e-03 -1.026406e-02 -1.065323e-02 -1.050551e-02 -9.557969e-03 -7.538090e-03 -4.229508e-03 4.376996e-04 6.296893e-03 1.289688e-02 1.953793e-02 2.540612e-02 2.977300e-02 3.218795e-02 3.258559e-02 3.126654e-02 2.876779e-02 2.568549e-02 2.252342e-02 1.961303e-02 1.710887e-02 1.503243e-02 1.333007e-02 1.192153e-02 1.072987e-02 9.694660e-03 8.774147e-03 7.942111e-03 7.183209e-03 6.488771e-03 5.853703e-03 5.274519e-03 4.748238e-03 4.271861e-03 3.842197e-03 3.455862e-03 3.109364e-03 2.799203e-03 2.521961e-03 2.274371e-03 2.053372e-03 1.856132e-03 1.680064e-03
-1.104432e-03 -1.227197e-03 -1.366210e-03 -1.523849e-03 -1.702831e-03 -1.906225e-03 -2.137467e-03 -2.400325e-03 -2.698825e-03 -3.037083e-03 -3.418995e-03 -3.847725e-03 -4.324867e-03 -4.849167e-03 -5.414627e-03 -6.007839e-03 -6.604423e-03 -7.164623e-03 -7.628463e-03 -7.911488e-03 -7.902977e-03 -7.469530e-03 -6.467478e-03 -4.766860e-03 -2.286738e-03 9.639534e-04 4.852492e-03 9.111850e-03 1.336699e-02 1.719947e-02 2.023499e-02 2.222573e-02 2.309860e-02 2.295320e-02 2.201441e-02 2.056096e-02 1.885737e-02 1.710905e-02 1.544671e-02 1.393390e-02 1.258641e-02 1.139302e-02 1.033177e-02 9.379896e-03 8.518453e-03 7.733481e-03 7.015364e-03 6.357604e-03 5.755628e-03 5.205873e-03 4.705208e-03 4.250606e-03 3.839010e-03 3.467307e-03 3.132360e-03 2.831064e-03 2.560399e-03 2.317479e-03 2.099583e-03 1.904184e-03 1.728954e-03
-1.142368e-03 -1.262351e-03 -1.396900e-03 -1.547850e-03 -1.717212e-03 -1.907153e-03 -2.119948e-03 -2.357895e-03 -2.623172e-03 -2.917601e-03 -3.242297e-03 -3.597140e-03 -3.980024e-03 -4.385806e-03 -4.804916e-03 -5.221586e-03 -5.611766e-03 -5.940907e-03 -6.162053e-03 -6.214973e-03 -6.027443e-03 -5.519987e-03 -4.615294e-03 -3.252678e-03 -1.406301e-03 8.965325e-04 3.562813e-03 6.433483e-03 9.299549e-03 1.193382e-02 1.413123e-02 1.574631e-02 1.671640e-02 1.706412e-02 1.688018e-02 1.629407e-02 1.544308e-02 1.444840e-02 1.340230e-02 1.236575e-02 1.137323e-02 1.044028e-02 9.571033e-03 8.763926e-03 8.015331e-03 7.321420e-03 6.678879e-03 6.084982e-03 5.537413e-03 5.034037e-03 4.572731e-03 4.151280e-03 3.767350e-03 3.418502e-03 3.102233e-03 2.816027e-03 2.557404e-03 2.323961e-03 2.113409e-03 1.923589e-03 1.752495e-03
-1.164125e-03 -1.279381e-03 -1.407371e-03 -1.549428e-03 -1.706936e-03 -1.881282e-03 -2.073788e-03 -2.285591e-03 -2.517483e-03 -2.769670e-03 -3.041441e-03 -3.330715e-03 -3.633446e-03 -3.942857e-03 -4.248521e-03 -4.535308e-03 -4.782297e-03 -4.961864e-03 -5.039231e-03 -4.972955e-03 -4.716884e-03 -4.224118e-03 -3.453274e-03 -2.376798e-03 -9.902544e-04 6.794431e-04 2.569526e-03 4.583148e-03 6.598759e-03 8.486199e-03 1.012624e-02 1.142872e-02 1.234450e-02 1.286843e-02 1.303344e-02 1.289834e-02 1.253360e-02 1.200884e-02 1.138436e-02 1.070722e-02 1.001114e-02 9.318489e-03 8.643197e-03 7.993513e-03 7.374139e-03 6.787680e-03 6.235510e-03 5.718225e-03 5.235875e-03 4.788058e-03 4.373990e-03 3.992550e-03 3.642341e-03 3.321750e-03 3.029015e-03 2.762282e-03 2.519664e-03 2.299283e-03 2.099309e-03 1.917986e-03 1.753652e-03
-1.171297e-03 -1.280345e-03 -1.400264e-03 -1.531944e-03 -1.676237e-03 -1.833897e-03 -2.005498e-03 -2.191314e-03 -2.391165e-03 -2.604201e-03 -2.828624e-03 -3.061340e-03 -3.297522e-03 -3.530105e-03 -3.749228e-03 -3.941667e-03 -4.090364e-03 -4.174189e-03 -4.168130e-03 -4.044151e-03 -3.772979e-03 -3.326963e-03 -2.684026e-03 -1.832355e-03 -7.751630e-04 4.655781e-04 1.847636e-03 3.310287e-03 4.779723e-03 6.177528e-03 7.430647e-03 8.480682e-03 9.290443e-03 9.846406e-03 1.015695e-02 1.024732e-02 1.015303e-02 9.913320e-03 9.566052e-03 9.144430e-03 8.675608e-03 8.180656e-03 7.675311e-03 7.171046e-03 6.676101e-03 6.196341e-03 5.735897e-03 5.297603e-03 4.883300e-03 4.494044e-03 4.130260e-03 3.791860e-03 3.478352e-03 3.188926e-03 2.922538e-03 2.677980e-03 2.453938e-03 2.249048e-03 2.061931e-03 1.891226e-03 1.735615e-03
-1.165686e-03 -1.267491e-03 -1.378358e-03 -1.498805e-03 -1.629256e-03 -1.769972e-03 -1.920974e-03 -2.081933e-03 -2.252034e-03 -2.429801e-03 -2.612883e-03 -2.797800e-03 -2.979651e-03 -3.151801e-03 -3.305577e-03 -3.430005e-03 -3.511676e-03 -3.534824e-03 -3.481726e-03 -3.333548e-03 -3.071734e-03 -2.679953e-03 -2.146527e-03 -1.467089e-03 -6.470422e-04 2.967245e-04 1.335441e-03 2.429793e-03 3.533088e-03 4.595891e-03 5.571376e-03 6.420361e-03 7.115077e-03 7.640989e-03 7.996534e-03 8.191095e-03 8.241920e-03 8.170732e-03 8.000707e-03 7.754196e-03 7.451300e-03 7.109216e-03 6.742130e-03 6.361442e-03 5.976145e-03 5.593227e-03 5.218034e-03 4.854583e-03 4.505805e-03 4.173743e-03 3.859715e-03 3.564446e-03 3.288186e-03 3.030805e-03 2.791879e-03 2.570767e-03 2.366670e-03 2.178684e-03 2.005843e-03 1.847152e-03 1.701615e-03
-1.149182e-03 -1.243105e-03 -1.344395e-03 -1.453277e-03 -1.569840e-03 -1.693985e-03 -1.825344e-03 -1.963196e-03 -2.106354e-03 -2.253025e-03 -2.400664e-03 -2.545796e-03 -2.683831e-03 -2.808894e-03 -2.913674e-03 -2.989342e-03 -3.025584e-03 -3.010797e-03 -2.932513e-03 -2.778101e-03 -2.535777e-03 -2.195889e-03 -1.752410e-03 -1.204448e-03 -5.575358e-04 1.755739e-04 9.749015e-04 1.814176e-03 2.662728e-03 3.488131e-03 4.259210e-03 4.948911e-03 5.536554e-03 6.009137e-03 6.361552e-03 6.595842e-03 6.719760e-03 6.745018e-03 6.685531e-03 6.555927e-03 6.370426e-03 6.142126e-03 5.882616e-03 5.601848e-03 5.308173e-03 5.008466e-03 4.708282e-03 4.412029e-03 4.123127e-03 3.844156e-03 3.576986e-03 3.322893e-03 3.082663e-03 2.856683e-03 2.645019e-03 2.447491e-03 2.263725e-03 2.093209e-03 1.935333e-03 1.789424e-03 1.654773e-03
-1.123666e-03 -1.209403e-03 -1.300970e-03 -1.398365e-03 -1.501434e-03 -1.609823e-03 -1.722914e-03 -1.839758e-03 -1.958981e-03 -2.078691e-03 -2.196374e-03 -2.308777e-03 -2.411809e-03 -2.500450e-03 -2.568702e-03 -2.609600e-03 -2.615313e-03 -2.577365e-03 -2.487012e-03 -2.335779e-03 -2.116169e-03 -1.822511e-03 -1.451869e-03 -1.004914e-03 -4.866172e-04 9.339729e-05 7.209543e-04 1.377971e-03 2.043618e-03 2.695888e-03 3.313356e-03 3.876889e-03 4.371048e-03 4.784994e-03 5.112822e-03 5.353348e-03 5.509451e-03 5.587167e-03 5.594680e-03 5.541376e-03 5.437047e-03 5.291285e-03 5.113069e-03 4.910523e-03 4.690800e-03 4.460056e-03 4.223486e-03 3.985385e-03 3.749238e-03 3.517809e-03 3.293229e-03 3.077086e-03 2.870508e-03 2.674234e-03 2.488688e-03 2.314034e-03 2.150233e-03 1.997086e-03 1.854277e-03 1.721401e-03 1.597994e-03
-1.090931e-03 -1.168453e-03 -1.250446e-03 -1.336742e-03 -1.427017e-03 -1.520754e-03 -1.617190e-03 -1.715264e-03 -1.813552e-03 -1.910199e-03 -2.002849e-03 -2.088586e-03 -2.163872e-03 -2.224521e-03 -2.265699e-03 -2.281979e-03 -2.267464e-03 -2.215988e-03 -2.121424e-03 -1.978082e-03 -1.781201e-03 -1.527497e-03 -1.215735e-03 -8.472287e-04 -4.262177e-04 3.997935e-05 5.410912e-04 1.064334e-03 1.595144e-03 2.118143e-03 2.618211e-03 3.081542e-03 3.496540e-03 3.854455e-03 4.149697e-03 4.379832e-03 4.545301e-03 4.648954e-03 4.695469e-03 4.690769e-03 4.641472e-03 4.554434e-03 4.436398e-03 4.293737e-03 4.132295e-03 3.957293e-03 3.773297e-03 3.584217e-03 3.393341e-03 3.203373e-03 3.016494e-03 2.834418e-03 2.658448e-03 2.489538e-03 2.328345e-03 2.175274e-03 2.030532e-03 1.894159e-03 1.766067e-03 1.646067e-03 1.533899e-03
-1.052633e-03 -1.122123e-03 -1.194911e-03 -1.270712e-03 -1.349094e-03 -1.429446e-03 -1.510938e-03 -1.592483e-03 -1.672690e-03 -1.749823e-03 -1.821756e-03 -1.885941e-03 -1.939387e-03 -1.978660e-03 -1.999911e-03 -1.998947e-03 -1.971348e-03 -1.912641e-03 -1.818536e-03 -1.685215e-03 -1.509671e-03 -1.290070e-03 -1.026103e-03 -7.192823e-04 -3.731468e-04 6.681262e-06 4.126118e-04 8.353910e-04 1.264578e-03 1.689157e-03 2.098214e-03 2.481612e-03 2.830580e-03 3.138155e-03 3.399445e-03 3.611698e-03 3.774203e-03 3.888045e-03 3.955781e-03 3.981077e-03 3.968342e-03 3.922399e-03 3.848210e-03 3.750652e-03 3.634357e-03 3.503605e-03 3.362255e-03 3.213712e-03 3.060928e-03 2.906407e-03 2.752240e-03 2.600129e-03 2.451436e-03 2.307214e-03 2.168253e-03 2.035115e-03 1.908170e-03 1.787632e-03 1.673582e-03 1.566000e-03 1.464782e-03
-1.010255e-03 -1.072056e-03 -1.136161e-03 -1.202212e-03 -1.269714e-03 -1.338015e-03 -1.406275e-03 -1.473434e-03 -1.538191e-03 -1.598969e-03 -1.653896e-03 -1.700791e-03 -1.737163e-03 -1.760227e-03 -1.766946e-03 -1.754099e-03 -1.718384e-03 -1.656562e-03 -1.565632e-03 -1.443041e-03 -1.286917e-03 -1.096307e-03 -8.713941e-04 -6.136817e-04 -3.260969e-04 -1.300627e-05 3.198813e-04 6.657280e-04 1.016885e-03 1.365293e-03 1.702922e-03 2.022216e-03 2.316483e-03 2.580215e-03 2.809289e-03 3.001056e-03 3.154318e-03 3.269210e-03 3.347021e-03 3.389960e-03 3.400925e-03 3.383269e-03 3.340592e-03 3.276567e-03 3.194794e-03 3.098700e-03 2.991462e-03 2.875961e-03 2.754758e-03 2.630088e-03 2.503866e-03 2.377702e-03 2.252928e-03 2.130617e-03 2.011616e-03 1.896571e-03 1.785957e-03 1.680099e-03 1.579201e-03 1.483364e-03 1.392607e-03
-9.650976e-04 -1.019661e-03 -1.075703e-03 -1.132825e-03 -1.190506e-03 -1.248090e-03 -1.304762e-03 -1.359528e-03 -1.411201e-03 -1.458382e-03 -1.499453e-03 -1.532574e-03 -1.555693e-03 -1.566572e-03 -1.562828e-03 -1.541997e-03 -1.501620e-03 -1.439355e-03 -1.353108e-03 -1.241185e-03 -1.102452e-03 -9.364866e-04 -7.437252e-04 -5.255645e-04 -2.844201e-04 -2.371966e-05 2.521753e-04 5.381212e-04 8.284097e-04 1.117036e-03 1.397993e-03 1.665570e-03 1.914623e-03 2.140796e-03 2.340678e-03 2.511889e-03 2.653091e-03 2.763933e-03 2.844949e-03 2.897423e-03 2.923229e-03 2.924673e-03 2.904342e-03 2.864970e-03 2.809318e-03 2.740088e-03 2.659848e-03 2.570984e-03 2.475669e-03 2.375842e-03 2.273206e-03 2.169233e-03 2.065168e-03 1.962050e-03 1.860730e-03 1.761885e-03 1.666042e-03 1.573597e-03 1.484832e-03 1.399934e-03 1.319008e-03
-9.182716e-04 -9.661173e-04 -1.014770e-03 -1.063813e-03 -1.112728e-03 -1.160879e-03 -1.207499e-03 -1.251680e-03 -1.292362e-03 -1.328323e-03 -1.358183e-03 -1.380408e-03 -1.393322e-03 -1.395138e-03 -1.383995e-03 -1.358013e-03 -1.315367e-03 -1.254367e-03 -1.173560e-03 -1.071837e-03 -9.485394e-04 -8.035689e-04 -6.374717e-04 -4.515040e-04 -2.476599e-04 -2.865671e-05 2.021273e-04 4.407624e-04 6.829194e-04 9.240530e-04 1.159605e-03 1.385205e-03 1.596866e-03 1.791135e-03 1.965218e-03 2.117051e-03 2.245323e-03 2.349458e-03 2.429557e-03 2.486315e-03 2.520918e-03 2.534937e-03 2.530216e-03 2.508771e-03 2.472703e-03 2.424118e-03 2.365065e-03 2.297492e-03 2.223209e-03 2.143870e-03 2.060954e-03 1.975771e-03 1.889455e-03 1.802975e-03 1.717147e-03 1.632644e-03 1.550010e-03 1.469673e-03 1.391964e-03 1.317122e-03 1.245315e-03
-8.707069e-04 -9.123917e-04 -9.543463e-04 -9.961565e-04 -1.037321e-03 -1.077241e-03 -1.115214e-03 -1.150423e-03 -1.181936e-03 -1.208702e-03 -1.229555e-03 -1.243225e-03 -1.248355e-03 -1.243522e-03 -1.227281e-03 -1.198202e-03 -1.154932e-03 -1.096258e-03 -1.021178e-03 -9.289817e-04 -8.193227e-04 -6.922892e-04 -5.484607e-04 -3.889455e-04 -2.153932e-04 -2.997725e-05 1.646538e-04 3.654568e-04 5.691017e-04 7.721009e-04 9.709495e-04 1.162269e-03 1.342939e-03 1.510215e-03 1.661817e-03 1.795988e-03 1.911523e-03 2.007764e-03 2.084570e-03 2.142269e-03 2.181590e-03 2.203588e-03 2.209567e-03 2.201007e-03 2.179492e-03 2.146653e-03 2.104110e-03 2.053436e-03 1.996122e-03 1.933555e-03 1.867003e-03 1.797607e-03 1.726378e-03 1.654198e-03 1.581826e-03 1.509904e-03 1.438968e-03 1.369456e-03 1.301717e-03 1.236025e-03 1.172584e-03
-8.231644e-04 -8.592555e-04 -8.951961e-04 -9.305867e-04 -9.649552e-04 -9.977503e-04 -1.028337e-03 -1.055993e-03 -1.079909e-03 -1.099188e-03 -1.112856e-03 -1.119866e-03 -1.119125e-03 -1.109507e-03 -1.089891e-03 -1.059193e-03 -1.016414e-03 -9.606870e-04 -8.913316e-04 -8.079080e-04 -7.102700e-04 -5.986110e-04 -4.735003e-04 -3.359048e-04 -1.871928e-04 -2.911714e-05 1.362236e-04 3.064446e-04 4.789527e-04 6.510386e-04 8.199768e-04 9.831273e-04 1.138031e-03 1.282495e-03 1.414660e-03 1.533047e-03 1.636582e-03 1.724605e-03 1.796851e-03 1.853421e-03 1.894740e-03 1.921505e-03 1.934632e-03 1.935200e-03 1.924400e-03 1.903484e-03 1.873727e-03 1.836388e-03 1.792684e-03 1.743768e-03 1.690712e-03 1.634496e-03 1.576008e-03 1.516033e-03 1.455264e-03 1.394297e-03 1.333642e-03 1.273727e-03 1.214905e-03 1.157463e-03 1.101627e-03
-7.762525e-04 -8.073089e-04 -8.378937e-04 -8.676306e-04 -8.960831e-04 -9.227518e-04 -9.470712e-04 -9.684095e-04 -9.860699e-04 -9.992945e-04 -1.007272e-03 -1.009148e-03 -1.004043e-03 -9.910707e-04 -9.693628e-04 -9.381012e-04 -8.965510e-04 -8.440982e-04 -7.802884e-04 -7.048669e-04 -6.178141e-04 -5.193769e-04 -4.100919e-04 -2.907969e-04 -1.626308e-04 -2.701733e-05 1.143647e-04 2.596265e-04 4.067267e-04 5.535374e-04 6.979173e-04 8.377842e-04 9.711851e-04 1.096359e-03 1.211786e-03 1.316229e-03 1.408751e-03 1.488727e-03 1.555837e-03 1.610047e-03 1.651581e-03 1.680891e-03 1.698613e-03 1.705529e-03 1.702530e-03 1.690574e-03 1.670660e-03 1.643789e-03 1.610949e-03 1.573089e-03 1.531108e-03 1.485841e-03 1.438053e-03 1.388439e-03 1.337615e-03 1.286127e-03 1.234448e-03 1.182985e-03 1.132081e-03 1.082024e-03 1.033048e-03
-7.304451e-04 -7.570040e-04 -7.828533e-04 -8.076443e-04 -8.309801e-04 -8.524133e-04 -8.714462e-04 -8.875309e-04 -9.000726e-04 -9.084343e-04 -9.119449e-04 -9.099095e-04 -9.016233e-04 -8.863894e-04 -8.635395e-04 -8.324573e-04 -7.926057e-04 -7.435547e-04 -6.850102e-04 -6.168419e-04 -5.391085e-04 -4.520789e-04 -3.562460e-04 -2.523332e-04 -1.412914e-04 -2.428497e-05 9.733171e-05 2.220487e-04 3.482428e-04 4.742267e-04 5.983017e-04 7.188117e-04 8.341940e-04 9.430262e-04 1.044065e-03 1.136275e-03 1.218849e-03 1.291216e-03 1.353040e-03 1.404210e-03 1.444823e-03 1.475157e-03 1.495651e-03 1.506867e-03 1.509469e-03 1.504190e-03 1.491805e-03 1.473111e-03 1.448905e-03 1.419963e-03 1.387033e-03 1.350821e-03 1.311982e-03 1.271120e-03 1.228781e-03 1.185452e-03 1.141568e-03 1.097506e-03 1.053592e-03 1.010104e-03 9.672767e-04
-6.860999e-04 -7.086678e-04 -7.303562e-04 -7.508468e-04 -7.697824e-04 -7.867668e-04 -8.013655e-04 -8.131070e-04 -8.214867e-04 -8.259723e-04 -8.260109e-04 -8.210389e-04 -8.104942e-04 -7.938306e-04 -7.705345e-04 -7.401445e-04 -7.022711e-04 -6.566182e-04 -6.030043e-04 -5.413824e-04 -4.718578e-04 -3.947014e-04 -3.103591e-04 -2.194541e-04 -1.227830e-04 -2.130424e-05 8.388138e-05 1.915564e-04 3.004187e-04 4.091183e-04 5.162962e-04 6.206241e-04 7.208432e-04 8.157984e-04 9.044682e-04 9.859878e-04 1.059665e-03 1.124990e-03 1.181634e-03 1.229444e-03 1.268436e-03 1.298771e-03 1.320746e-03 1.334762e-03 1.341313e-03 1.340955e-03 1.334292e-03 1.321953e-03 1.304579e-03 1.282803e-03 1.257244e-03 1.228494e-03 1.197112e-03 1.163616e-03 1.128485e-03 1.092152e-03 1.055007e-03 1.017395e-03 9.796200e-04 9.419459e-04 9.045985e-04
-6.434761e-04 -6.625232e-04 -6.805762e-04 -6.973476e-04 -7.125194e-04 -7.257434e-04 -7.366430e-04 -7.448149e-04 -7.498334e-04 -7.512554e-04 -7.486274e-04 -7.414937e-04 -7.294072e-04 -7.119411e-04 -6.887027e-04 -6.593482e-04 -6.235982e-04 -5.812541e-04 -5.322133e-04 -4.764834e-04 -4.141948e-04 -3.456095e-04 -2.711263e-04 -1.912819e-04 -1.067460e-04 -1.831169e-05 7.311987e-05 1.665594e-04 2.609541e-04 3.552149e-04 4.482457e-04 5.389737e-04 6.263776e-04 7.095143e-04 7.875415e-04 8.597360e-04 9.255070e-04 9.844033e-04 1.036116e-03 1.080476e-03 1.117445e-03 1.147109e-03 1.169661e-03 1.185386e-03 1.194648e-03 1.197869e-03 1.195517e-03 1.188090e-03 1.176100e-03 1.160062e-03 1.140487e-03 1.117868e-03 1.092679e-03 1.065363e-03 1.036336e-03 1.005978e-03 9.746367e-04 9.426244e-04 9.102194e-04 8.776673e-04 8.451821e-04
-6.027507e-04 -6.187082e-04 -6.336010e-04 -6.471720e-04 -6.591401e-04 -6.692017e-04 -6.770320e-04 -6.822881e-04 -6.846122e-04 -6.836370e-04 -6.789916e-04 -6.703087e-04 -6.572337e-04 -6.394344e-04 -6.166117e-04 -5.885115e-04 -5.549366e-04 -5.157589e-04 -4.709304e-04 -4.204937e-04 -3.645905e-04 -3.034673e-04 -2.374788e-04 -1.670867e-04 -9.285617e-05 -1.544691e-05 6.439857e-05 1.458709e-04 2.281122e-04 3.102375e-04 3.913564e-04 4.705960e-04 5.471227e-04 6.201621e-04 6.890171e-04 7.530816e-04 8.118518e-04 8.649324e-04 9.120398e-04 9.530006e-04 9.877478e-04 1.016313e-03 1.038819e-03 1.055464e-03 1.066514e-03 1.072291e-03 1.073156e-03 1.069500e-03 1.061733e-03 1.050273e-03 1.035541e-03 1.017945e-03 9.978856e-04 9.757404e-04 9.518670e-04 9.265981e-04 9.002403e-04 8.730730e-04 8.453483e-04 8.172920e-04 7.891036e-04
-5.640337e-04 -5.772926e-04 -5.894512e-04 -6.002809e-04 -6.095351e-04 -6.169504e-04 -6.222482e-04 -6.251381e-04 -6.253207e-04 -6.224923e-04 -6.163504e-04 -6.066000e-04 -5.929608e-04 -5.751749e-04 -5.530161e-04 -5.262986e-04 -4.948861e-04 -4.587012e-04 -4.177334e-04 -3.720468e-04 -3.217853e-04 -2.671771e-04 -2.085358e-04 -1.462592e-04 -8.082556e-05 -1.278660e-05 5.724243e-05 1.285949e-04 2.005672e-04 2.724350e-04 3.434701e-04 4.129577e-04 4.802132e-04 5.445974e-04 6.055308e-04 6.625044e-04 7.150885e-04 7.629385e-04 8.057979e-04 8.434980e-04 8.759554e-04 9.031673e-04 9.252049e-04 9.422052e-04 9.543619e-04 9.619166e-04 9.651482e-04 9.643647e-04 9.598933e-04 9.520731e-04 9.412473e-04 9.277571e-04 9.119362e-04 8.941064e-04 8.745744e-04 8.536287e-04 8.315384e-04 8.085512e-04 7.848938e-04 7.607713e-04 7.363675e-04
-5.273805e-04 -5.382929e-04 -5.480960e-04 -5.565881e-04 -5.635540e-04 -5.687660e-04 -5.719866e-04 -5.729705e-04 -5.714678e-04 -5.672284e-04 -5.600064e-04 -5.495652e-04 -5.356840e-04 -5.181638e-04 -4.968346e-04 -4.715624e-04 -4.422563e-04 -4.088749e-04 -3.714331e-04 -3.300068e-04 -2.847369e-04 -2.358319e-04 -1.835684e-04 -1.282895e-04 -7.040126e-05 -1.036713e-05 5.130020e-05 1.140484e-04 1.772967e-04 2.404484e-04 3.029043e-04 3.640752e-04 4.233958e-04 4.803358e-04 5.344114e-04 5.851938e-04 6.323164e-04 6.754797e-04 7.144539e-04 7.490795e-04 7.792658e-04 8.049879e-04 8.262819e-04 8.432390e-04 8.559988e-04 8.647424e-04 8.696849e-04 8.710677e-04 8.691520e-04 8.642119e-04 8.565284e-04 8.463838e-04 8.340576e-04 8.198220e-04 8.039391e-04 7.866581e-04 7.682138e-04 7.488248e-04 7.286930e-04 7.080032e-04 6.869232e-04
